ncols         160
nrows         145
xllcorner     502310.486812
yllcorner     6496408.15082
cellsize      100
NODATA_value  -9999
0 0 0 0 0 0 0 0 0 0 0 0 0 0 4 6 21 47 60 93 109 169 186 232 273 312 347 414 435 500 522 592 619 700 753 812 879 986 1027 1168 1208 1283 1332 1327 1303 1295 1228 1228 1223 1221 1194 1175 1168 1157 1104 1090 1033 993 890 864 881 877 887 882 862 845 822 734 697 678 668 666 664 661 666 719 749 828 841 844 861 927 967 1153 1201 1203 1181 1120 1074 1034 987 960 877 849 774 727 689 657 586 560 485 475 506 523 588 640 678 720 795 825 936 969 1056 1077 1120 1151 1169 1261 1300 1326 1338 1357 1365 1377 1385 1370 1363 1244 1214 1123 1087 953 841 717 603 487 465 441 437 443 456 497 582 621 851 921 1044 1073 1148 1221 1273 1268 1296 1296 1295 1299 1320 1333 1439 1488
0 0 0 0 0 0 0 0 0 0 0 0 0 0 4 6 21 47 60 93 109 169 186 232 273 312 347 414 435 500 522 592 619 700 753 812 879 986 1027 1168 1208 1283 1332 1327 1303 1295 1228 1228 1223 1221 1194 1175 1168 1157 1104 1090 1033 993 890 864 881 877 887 882 862 845 822 734 697 678 668 666 664 661 666 719 749 828 841 844 861 927 967 1153 1201 1203 1181 1120 1074 1034 987 960 877 849 774 727 689 657 586 560 485 475 506 523 588 640 678 720 795 825 936 969 1056 1077 1120 1151 1208 1313 1349 1422 1412 1417 1419 1412 1396 1345 1322 1233 1204 1113 1075 916 788 690 597 489 468 445 443 454 472 520 624 676 934 989 1089 1114 1182 1222 1278 1352 1343 1341 1345 1351 1358 1369 1496 1478
0 0 0 0 0 0 0 0 0 0 0 0 0 0 0 0 6 26 50 90 111 196 221 273 309 354 398 456 479 553 575 635 656 732 787 839 893 1000 1040 1182 1225 1268 1276 1250 1166 1153 1119 1113 1099 1095 1069 1051 1039 1005 967 959 920 901 833 777 766 761 768 772 764 754 738 678 643 619 610 603 600 602 613 683 724 855 918 954 985 1037 1061 1184 1212 1209 1189 1123 1076 1023 965 937 860 834 746 692 635 580 516 496 483 491 531 548 617 675 731 781 864 887 948 973 1055 1082 1159 1212 1241 1336 1362 1449 1474 1557 1545 1420 1389 1329 1311 1216 1186 1096 1061 910 774 681 596 492 473 452 449 472 490 545 686 771 1008 1047 1123 1145 1208 1257 1293 1376 1400 1400 1400 1403 1429 1461 1496 1463
0 0 0 0 0 0 0 0 0 0 0 0 0 0 0 0 6 26 50 90 111 196 221 273 309 354 398 456 479 553 575 635 656 732 787 839 893 1000 1040 1182 1225 1268 1276 1250 1166 1153 1119 1113 1099 1095 1069 1051 1039 1005 967 861 822 806 750 733 701 700 715 724 720 709 694 648 617 590 576 574 574 591 608 696 743 888 970 1006 1037 1096 1128 1201 1210 1186 1170 1115 1069 1015 950 920 844 817 737 662 606 545 498 490 487 494 530 554 668 723 782 860 939 948 989 1011 1079 1102 1177 1234 1266 1353 1379 1453 1479 1469 1455 1420 1376 1286 1260 1181 1154 1059 1021 877 772 675 591 496 478 458 456 482 503 565 762 851 1056 1094 1155 1169 1223 1272 1328 1385 1423 1400 1448 1448 1473 1504 1494 1460
0 0 0 0 0 0 0 0 0 0 0 0 0 0 0 0 4 17 50 97 120 223 260 314 327 380 429 477 519 583 604 668 694 783 849 914 954 1050 1083 1153 1154 1127 1120 1120 1059 1021 971 966 964 951 928 913 884 852 802 781 729 715 670 658 640 589 641 681 677 666 651 610 586 556 546 550 556 594 616 720 771 925 1017 1066 1102 1156 1175 1201 1195 1157 1142 1085 1047 997 940 907 824 800 710 637 572 518 493 491 494 501 553 597 732 827 885 923 1001 1009 1041 1056 1115 1139 1208 1260 1285 1365 1391 1471 1519 1485 1469 1428 1380 1270 1245 1162 1132 1040 1007 869 752 665 582 499 484 463 461 493 518 600 828 869 991 1023 1147 1167 1225 1283 1343 1396 1435 1425 1458 1466 1514 1542 1503 1465
0 0 0 0 0 0 0 0 0 0 0 0 0 0 0 0 4 15 51 98 123 225 262 324 336 389 436 487 533 597 620 687 717 815 848 941 988 1045 1085 1099 1092 1075 1059 1047 1017 987 913 908 878 880 841 825 806 768 721 703 648 633 599 597 502 539 600 641 635 622 607 570 551 528 524 543 555 607 634 754 805 965 1072 1144 1182 1196 1196 1182 1170 1124 1108 1052 1011 967 917 887 806 782 679 607 542 507 492 493 506 520 593 640 775 885 984 1068 1064 1074 1106 1112 1156 1178 1241 1285 1307 1376 1409 1502 1540 1497 1475 1435 1388 1258 1231 1154 1126 1015 974 864 758 654 571 495 485 469 469 515 547 649 818 870 994 1023 1114 1138 1213 1272 1325 1375 1414 1437 1485 1499 1544 1566 1521 1484
0 0 0 0 0 0 0 0 0 0 0 0 0 0 0 0 4 19 52 103 126 223 256 320 334 394 439 491 541 607 629 699 728 824 858 946 995 1038 1052 1047 1040 1028 996 989 970 944 850 835 792 768 760 747 717 692 660 623 573 511 433 425 448 487 547 597 591 579 566 535 517 515 528 556 569 628 659 788 839 1020 1131 1199 1224 1203 1193 1153 1139 1089 1071 1011 972 926 880 857 791 766 659 584 529 502 494 496 524 544 626 670 837 965 1049 1113 1196 1173 1158 1165 1195 1212 1272 1314 1336 1405 1433 1535 1568 1489 1465 1424 1379 1240 1206 1138 1118 998 959 886 773 645 558 499 492 492 494 554 611 713 840 882 981 1003 1089 1118 1202 1260 1316 1366 1426 1438 1496 1520 1632 1595 1506 1438
0 0 0 0 0 0 0 0 0 0 0 0 0 0 0 0 4 29 60 110 135 224 249 311 329 395 441 490 543 613 632 703 728 822 853 939 980 1004 1005 999 992 981 936 920 906 888 809 784 735 717 671 668 634 610 581 554 428 406 384 382 401 421 498 538 544 533 525 513 512 527 546 569 597 665 703 843 895 1051 1155 1216 1227 1190 1174 1120 1099 1051 1035 977 938 894 850 830 774 753 644 576 526 503 497 501 535 558 649 697 905 1006 1078 1148 1251 1276 1202 1199 1233 1239 1309 1343 1360 1448 1474 1549 1546 1473 1441 1398 1348 1220 1158 1097 1084 971 930 807 728 631 554 510 504 513 519 611 639 722 852 890 921 962 1075 1103 1196 1252 1303 1354 1424 1452 1502 1531 1632 1595 1506 1438
0 0 0 0 0 0 0 0 0 0 0 0 0 0 0 0 11 39 72 117 141 223 244 303 323 401 453 497 541 614 634 701 722 812 842 921 951 962 961 956 952 945 886 853 836 825 752 714 684 665 617 595 559 534 510 449 381 369 356 358 384 399 459 494 505 503 502 516 523 555 576 603 634 728 777 901 942 1067 1113 1207 1205 1174 1139 1086 1064 1016 1001 955 935 866 819 803 755 730 631 600 532 507 502 506 548 573 691 758 935 981 1111 1169 1228 1276 1307 1270 1317 1335 1348 1363 1400 1458 1471 1508 1511 1468 1450 1371 1313 1250 1176 1056 1018 904 865 734 689 595 563 539 525 546 563 625 686 802 877 885 969 1001 1091 1115 1194 1253 1302 1346 1413 1444 1566 1601 1589 1561 1434 1375
0 0 0 0 0 0 0 0 0 0 0 0 0 0 0 5 30 48 83 129 151 223 242 297 321 405 460 504 546 612 632 699 720 797 826 892 909 917 920 912 907 901 857 789 763 750 701 665 601 607 574 550 491 446 401 368 344 341 353 361 398 415 459 484 502 508 512 538 551 592 618 647 677 797 837 949 981 1077 1114 1180 1165 1132 1101 1055 1038 994 984 956 940 867 820 802 750 724 630 602 536 510 505 513 568 596 738 814 950 992 1111 1164 1210 1243 1271 1275 1299 1308 1348 1363 1400 1458 1471 1508 1511 1468 1450 1371 1313 1250 1176 1056 1018 904 865 734 689 595 563 539 525 546 563 625 686 802 863 885 969 1001 1091 1115 1194 1224 1302 1346 1387 1444 1566 1601 1589 1561 1434 1405
0 0 0 0 0 0 0 0 0 0 0 0 0 4 10 30 41 59 89 144 160 220 238 294 321 409 461 510 554 613 633 697 717 780 803 853 867 876 878 863 851 843 818 777 717 685 658 638 563 554 524 509 440 392 349 322 325 331 371 385 429 446 491 512 532 547 552 570 590 642 666 702 765 855 885 986 1017 1093 1120 1153 1130 1103 1080 1042 1030 999 991 970 960 912 870 854 793 757 655 627 544 516 509 522 586 621 780 840 951 984 1090 1144 1172 1189 1218 1230 1271 1283 1323 1337 1368 1431 1449 1486 1502 1481 1463 1380 1319 1259 1187 1047 992 893 848 709 666 581 563 549 541 571 589 724 757 871 957 954 1015 1041 1113 1135 1207 1233 1306 1349 1388 1434 1567 1576 1548 1521 1381 1346
0 0 0 0 0 0 0 0 0 0 0 0 4 6 20 48 55 69 96 161 178 219 235 294 322 414 468 516 557 615 635 688 706 758 773 810 822 828 829 805 789 779 761 737 691 631 608 603 538 513 464 452 391 352 319 304 330 340 401 419 480 526 588 599 629 646 658 696 711 745 775 790 830 900 925 1008 1036 1109 1130 1136 1112 1095 1080 1049 1040 1013 1005 984 974 939 911 898 849 827 712 672 568 525 517 525 580 616 789 837 933 959 1050 1077 1100 1128 1172 1189 1241 1253 1293 1306 1335 1394 1427 1474 1487 1515 1493 1407 1340 1281 1214 1086 1041 913 864 698 651 573 558 563 579 646 703 844 909 1024 1077 1082 1112 1132 1182 1199 1244 1265 1327 1363 1403 1516 1518 1504 1447 1423 1347 1318
0 0 0 0 0 0 0 0 0 0 0 0 4 14 33 63 66 79 102 173 193 227 241 298 324 416 472 519 559 615 636 667 676 720 733 748 768 774 764 748 732 718 692 677 648 609 546 546 514 487 415 398 348 318 303 313 342 379 493 515 582 607 650 667 685 709 723 757 771 810 823 845 875 937 959 1027 1049 1116 1138 1139 1115 1108 1099 1102 1081 1040 1031 1001 994 963 932 917 878 858 784 735 603 540 523 528 566 598 769 819 902 924 991 1027 1053 1070 1121 1143 1201 1215 1255 1269 1298 1405 1431 1459 1472 1520 1538 1434 1374 1307 1235 1143 1095 934 858 687 644 574 560 563 579 646 703 844 909 1024 1077 1082 1112 1132 1182 1199 1244 1265 1327 1363 1403 1516 1518 1504 1447 1423 1347 1318
0 0 0 0 0 0 0 0 0 0 0 0 21 28 39 73 76 87 107 175 200 238 250 302 326 414 472 517 557 614 634 632 628 646 657 685 696 711 706 686 672 655 623 608 590 564 508 499 469 450 376 353 316 300 314 341 419 464 561 586 652 668 700 716 736 759 772 817 831 865 868 881 912 964 984 1042 1064 1123 1144 1169 1173 1177 1170 1160 1144 1157 1143 1095 1082 1043 1021 1013 925 896 807 776 667 567 536 530 544 556 653 712 834 852 891 913 941 975 1037 1063 1133 1154 1240 1265 1312 1384 1407 1466 1476 1526 1520 1484 1453 1411 1299 1181 1133 939 855 672 635 593 591 605 636 725 785 948 976 1041 1115 1160 1209 1220 1253 1267 1312 1327 1371 1399 1460 1529 1468 1446 1382 1358 1285 1267
0 0 0 0 0 0 0 0 0 0 0 15 27 31 38 73 81 94 119 174 199 248 260 302 326 410 469 514 554 607 620 604 590 581 591 613 625 630 645 624 608 589 560 543 532 516 469 455 415 400 334 322 298 311 337 385 518 550 624 647 703 715 743 758 785 807 822 862 868 895 901 918 943 981 997 1055 1076 1141 1160 1212 1233 1239 1233 1203 1195 1157 1143 1095 1082 1043 1021 1013 925 896 807 776 667 567 536 530 544 556 653 712 834 852 891 913 941 975 1037 1063 1133 1154 1240 1265 1312 1384 1407 1466 1476 1526 1520 1484 1453 1411 1299 1181 1133 939 855 672 635 593 591 605 636 725 785 948 976 1041 1115 1160 1209 1220 1253 1267 1312 1327 1371 1399 1460 1529 1459 1430 1353 1330 1262 1237
0 0 0 0 0 0 0 0 0 11 25 20 34 40 44 70 95 110 138 178 194 258 275 295 308 389 446 492 534 566 556 532 509 450 445 452 460 469 472 462 455 447 422 407 396 386 335 325 285 278 260 265 299 351 415 492 635 685 755 757 790 799 828 848 868 871 877 905 911 933 961 988 1062 1036 1052 1143 1207 1268 1293 1310 1323 1312 1295 1273 1263 1223 1209 1181 1169 1149 1138 1129 1072 1035 903 846 693 606 547 538 539 543 579 609 751 784 836 868 906 938 978 994 1119 1146 1219 1183 1164 1244 1269 1350 1423 1493 1471 1421 1389 1347 1284 1183 1141 915 836 672 656 631 635 657 707 815 867 1024 1049 1086 1138 1201 1274 1290 1319 1329 1373 1390 1437 1477 1519 1489 1444 1421 1339 1315 1245 1221
0 0 0 0 0 0 0 0 0 11 25 20 34 40 44 70 95 110 138 178 194 258 275 295 308 389 446 492 534 566 556 532 509 450 445 452 460 469 472 462 455 447 422 407 396 386 335 325 285 278 260 265 299 351 415 492 635 685 755 757 790 799 828 848 868 871 877 905 911 933 961 988 1062 1036 1052 1143 1207 1268 1293 1310 1323 1312 1295 1273 1263 1223 1209 1181 1169 1149 1138 1129 1072 1035 903 846 693 606 547 538 539 543 579 609 751 784 836 868 906 938 978 1032 1104 1139 1103 1115 1253 1414 1439 1541 1528 1460 1440 1393 1356 1314 1264 1167 1125 892 814 682 673 660 667 694 757 864 906 1057 1087 1129 1173 1228 1298 1315 1354 1365 1412 1431 1477 1514 1551 1481 1436 1420 1330 1306 1235 1212
0 0 0 0 0 0 0 0 0 4 21 30 35 41 47 61 86 114 136 169 180 226 241 268 271 304 324 339 362 370 369 359 365 326 314 294 289 293 296 301 301 302 277 270 253 234 219 220 229 237 275 299 401 475 531 606 731 787 873 885 884 890 909 919 926 949 955 976 980 1002 1091 1128 1162 1207 1224 1299 1335 1432 1422 1389 1373 1360 1341 1322 1318 1286 1274 1249 1237 1231 1226 1208 1129 1103 989 949 758 670 580 552 545 544 555 568 648 686 785 838 889 936 997 1017 1095 1125 1218 1254 1337 1452 1506 1515 1497 1429 1409 1365 1332 1294 1242 1133 1080 866 804 698 692 686 693 720 783 898 941 1079 1113 1166 1211 1256 1322 1343 1392 1403 1452 1472 1539 1526 1517 1498 1420 1398 1305 1278 1211 1192
0 0 0 0 0 0 0 0 0 4 21 30 35 41 47 61 86 114 136 169 180 226 241 268 271 304 324 339 362 370 369 359 365 326 314 294 289 293 296 301 301 302 277 270 253 234 219 210 234 247 292 318 438 529 583 638 767 813 926 941 949 951 947 954 970 985 996 1018 1024 1046 1147 1197 1243 1288 1302 1377 1415 1507 1457 1422 1401 1386 1372 1349 1344 1328 1306 1273 1267 1268 1270 1244 1157 1130 1021 975 824 717 619 572 552 551 555 562 618 654 749 807 859 909 978 1000 1087 1145 1226 1252 1445 1567 1550 1479 1457 1398 1383 1345 1313 1272 1217 1097 1039 851 797 717 712 712 723 750 804 915 957 1109 1142 1194 1238 1277 1341 1371 1428 1439 1489 1527 1554 1508 1470 1427 1358 1335 1262 1236 1166 1149
0 0 0 0 0 0 0 0 0 3 17 32 41 47 50 54 69 89 115 140 149 180 184 184 186 194 208 231 246 250 243 222 220 213 213 208 205 193 195 195 195 194 195 200 198 202 222 226 258 274 316 337 460 545 603 651 755 800 943 973 1005 1004 994 1000 1015 1027 1036 1067 1070 1152 1215 1283 1358 1440 1406 1553 1562 1558 1536 1453 1428 1409 1395 1373 1365 1358 1346 1308 1299 1296 1269 1243 1166 1144 1037 993 845 759 657 606 565 561 560 564 598 622 715 776 832 884 958 985 1081 1145 1281 1297 1366 1449 1474 1450 1429 1374 1357 1320 1287 1258 1200 1038 990 839 801 736 732 736 752 781 829 936 990 1137 1167 1212 1253 1291 1359 1391 1463 1485 1553 1563 1542 1481 1436 1393 1323 1301 1217 1188 1120 1097
0 0 0 0 0 0 0 0 0 3 14 36 40 44 47 54 64 80 98 121 130 158 159 154 153 155 161 167 169 180 182 175 173 176 178 177 175 173 172 172 172 171 171 186 202 217 257 274 355 378 396 399 475 548 605 655 739 771 920 970 1050 1038 1048 1054 1065 1077 1082 1121 1128 1213 1361 1493 1525 1513 1522 1554 1561 1553 1545 1491 1451 1431 1416 1398 1389 1378 1371 1328 1317 1285 1241 1218 1154 1133 1033 989 848 771 699 647 587 576 567 570 590 607 690 750 810 863 943 973 1081 1112 1286 1301 1362 1444 1465 1438 1419 1364 1348 1299 1267 1233 1169 995 951 834 806 758 752 759 779 810 852 960 1008 1145 1176 1224 1265 1298 1388 1429 1515 1535 1575 1565 1513 1459 1417 1377 1304 1279 1196 1163 1072 1044
0 0 0 0 0 0 0 0 0 3 8 33 40 41 43 55 63 72 84 105 115 132 134 134 132 125 126 130 135 147 146 142 145 154 155 153 152 157 155 158 158 159 180 202 226 250 306 329 408 432 478 480 508 558 611 661 733 762 879 926 1057 1058 1080 1093 1107 1126 1137 1180 1196 1264 1460 1519 1504 1495 1500 1511 1514 1518 1518 1513 1488 1455 1444 1421 1413 1398 1386 1341 1319 1253 1210 1190 1132 1108 1008 968 847 781 728 686 614 597 577 578 591 604 668 727 787 844 932 966 1080 1113 1211 1254 1361 1449 1434 1433 1419 1352 1334 1281 1237 1192 1112 966 926 840 821 784 780 786 808 837 885 977 1019 1146 1179 1233 1277 1320 1386 1432 1538 1563 1568 1549 1482 1441 1372 1330 1284 1265 1202 1175 1060 1021
0 0 0 0 0 0 0 0 0 0 5 23 40 40 41 51 55 63 74 90 97 117 121 120 115 104 103 109 113 118 119 122 125 135 136 139 142 146 149 152 158 165 201 239 276 300 362 388 462 483 525 533 555 583 627 669 734 758 850 887 1017 1063 1183 1145 1165 1186 1199 1254 1268 1325 1475 1484 1467 1460 1462 1468 1470 1476 1481 1500 1507 1497 1474 1455 1448 1414 1398 1338 1311 1233 1188 1166 1097 1072 983 945 840 797 760 725 642 619 587 584 592 600 654 706 765 824 924 962 1073 1104 1205 1248 1354 1437 1425 1436 1421 1347 1330 1257 1217 1155 1080 936 909 855 844 816 811 813 840 878 929 1003 1035 1150 1185 1245 1294 1328 1402 1442 1558 1576 1540 1520 1459 1417 1372 1330 1284 1265 1202 1175 1060 1021
0 0 0 0 0 0 0 0 0 0 4 18 38 36 37 45 53 66 77 92 97 102 105 106 103 96 97 101 105 110 112 116 117 128 130 135 140 144 148 156 162 169 220 277 332 365 408 435 503 519 561 569 585 608 641 679 741 763 841 872 976 1013 1192 1259 1215 1250 1334 1448 1448 1442 1444 1441 1430 1428 1430 1437 1440 1452 1459 1487 1510 1537 1560 1503 1480 1421 1403 1337 1310 1231 1179 1154 1079 1051 959 934 856 825 789 761 675 647 600 595 598 604 644 689 745 788 903 943 1060 1091 1265 1276 1311 1346 1351 1362 1353 1302 1307 1262 1201 1132 1015 932 919 903 899 890 891 955 1028 1041 1052 1088 1111 1193 1221 1279 1329 1374 1440 1478 1586 1579 1505 1483 1409 1358 1319 1275 1203 1186 1131 1106 1022 992
0 0 0 0 0 0 0 0 0 0 3 17 31 32 33 41 54 67 78 107 114 102 97 95 95 97 100 103 105 108 109 112 112 123 125 131 136 144 146 154 161 171 239 310 382 422 452 469 535 553 580 586 610 630 660 692 749 770 847 875 964 996 1141 1190 1247 1426 1449 1443 1437 1418 1414 1410 1407 1408 1411 1419 1423 1437 1445 1484 1517 1545 1575 1520 1495 1432 1410 1346 1319 1243 1188 1158 1074 1046 962 947 897 861 838 794 708 682 621 612 606 611 641 679 729 788 903 943 1060 1091 1265 1276 1311 1346 1351 1362 1353 1302 1307 1262 1201 1132 1015 932 919 903 899 890 891 955 1028 1041 1052 1088 1111 1193 1221 1279 1329 1374 1440 1478 1586 1579 1505 1483 1409 1358 1319 1275 1203 1186 1131 1106 1022 992
0 0 0 0 0 0 0 0 11 0 3 15 32 35 34 47 54 67 82 120 130 112 108 97 96 103 107 104 101 107 110 115 114 120 122 129 136 142 144 158 169 186 311 398 469 518 543 548 576 594 627 631 653 672 697 730 791 814 885 911 973 994 1070 1097 1216 1272 1287 1352 1356 1366 1375 1382 1387 1392 1395 1409 1414 1432 1442 1496 1537 1567 1593 1550 1529 1450 1428 1370 1349 1277 1235 1214 1147 1123 1054 1040 1076 1016 963 887 783 753 678 656 624 622 634 662 705 760 876 918 1046 1089 1196 1222 1246 1239 1232 1236 1246 1268 1266 1231 1190 1129 1028 964 959 959 961 991 1011 1093 1163 1208 1209 1204 1225 1293 1313 1352 1398 1452 1578 1610 1635 1626 1510 1477 1388 1338 1299 1254 1178 1149 1045 1015 943 925
0 0 0 0 0 0 0 3 17 1 0 9 33 39 42 54 63 74 88 121 127 115 110 101 100 109 113 111 109 118 120 120 120 122 124 134 139 142 153 182 199 218 311 398 469 518 543 548 576 594 627 631 653 672 697 730 791 814 885 911 973 994 1070 1097 1216 1272 1287 1352 1356 1366 1375 1382 1387 1392 1395 1409 1414 1432 1442 1496 1537 1567 1593 1550 1529 1450 1428 1370 1349 1277 1235 1214 1147 1123 1054 1040 1076 1016 963 887 783 753 678 656 624 622 634 662 705 760 876 918 1046 1089 1196 1222 1246 1239 1232 1236 1246 1268 1266 1231 1190 1129 1028 964 959 959 961 1064 1075 1142 1209 1258 1270 1326 1318 1344 1358 1393 1433 1509 1605 1612 1598 1594 1558 1533 1410 1340 1295 1253 1187 1162 1047 1004 914 886
0 0 0 0 0 0 3 10 20 3 0 7 29 37 44 63 75 84 93 115 120 120 119 120 124 135 138 143 149 160 163 163 165 170 171 174 172 192 206 254 274 300 399 473 535 595 643 637 621 626 650 659 690 717 749 782 835 855 919 943 1010 1032 1100 1144 1196 1241 1256 1291 1305 1342 1357 1370 1379 1394 1399 1414 1420 1456 1474 1528 1567 1598 1623 1654 1616 1496 1467 1398 1380 1326 1287 1270 1230 1229 1169 1195 1184 1122 1059 979 849 815 725 701 648 641 641 659 692 744 862 905 1029 1069 1162 1203 1223 1167 1145 1128 1131 1149 1158 1183 1181 1156 1111 1064 1061 1065 1090 1138 1149 1207 1263 1301 1330 1331 1345 1396 1395 1444 1508 1537 1569 1555 1538 1537 1549 1531 1457 1370 1322 1270 1199 1175 1061 1006 891 861
0 0 0 0 0 0 3 10 20 3 0 7 29 37 44 63 75 84 93 115 120 120 119 120 124 135 138 143 149 160 163 163 165 170 171 174 172 192 206 254 274 300 399 473 535 595 643 637 621 626 650 659 690 717 749 782 835 855 919 943 1010 1032 1100 1144 1196 1241 1256 1291 1305 1342 1357 1370 1379 1394 1399 1414 1420 1456 1474 1543 1581 1615 1648 1688 1654 1512 1481 1419 1401 1349 1315 1300 1304 1317 1307 1286 1205 1147 1073 995 883 849 738 714 664 654 647 665 695 744 861 904 1021 1055 1168 1177 1160 1114 1106 1100 1097 1099 1104 1130 1147 1146 1131 1106 1104 1119 1133 1203 1219 1254 1279 1319 1363 1468 1477 1442 1447 1464 1484 1511 1525 1514 1499 1499 1505 1502 1458 1389 1318 1267 1187 1158 1055 1013 867 826
0 0 0 0 0 0 0 0 2 15 15 17 39 47 55 73 93 118 128 146 154 170 172 169 167 182 196 201 212 241 244 251 254 276 277 261 252 256 278 329 351 375 471 545 609 665 733 752 781 765 712 726 748 766 790 819 873 893 950 966 1031 1056 1131 1177 1197 1223 1234 1271 1283 1314 1331 1348 1368 1399 1412 1449 1459 1492 1507 1555 1594 1632 1671 1727 1733 1540 1502 1440 1423 1376 1355 1341 1383 1377 1329 1305 1217 1159 1088 1006 897 864 755 732 681 669 657 672 699 746 861 903 1014 1044 1132 1132 1110 1078 1072 1065 1064 1071 1076 1099 1113 1125 1134 1150 1158 1176 1187 1242 1267 1296 1319 1329 1403 1469 1461 1428 1421 1420 1437 1468 1487 1473 1452 1452 1457 1457 1432 1379 1310 1259 1182 1154 1055 1014 869 828
0 0 0 0 0 0 0 0 3 14 28 41 46 58 68 83 113 140 153 169 182 218 221 204 200 219 249 252 252 297 304 318 316 330 331 313 295 280 296 351 375 401 501 568 628 685 762 784 855 873 807 811 804 807 830 852 905 924 976 999 1058 1078 1153 1175 1188 1206 1216 1247 1259 1294 1312 1334 1364 1408 1424 1466 1478 1511 1525 1576 1613 1649 1689 1755 1671 1627 1609 1453 1430 1411 1426 1400 1354 1366 1332 1306 1222 1165 1098 1016 905 872 772 752 701 685 674 680 704 749 857 898 1004 1032 1093 1094 1074 1049 1048 1050 1051 1062 1066 1075 1088 1104 1125 1163 1177 1221 1235 1276 1292 1337 1349 1389 1443 1432 1419 1378 1369 1367 1387 1420 1447 1428 1393 1389 1391 1394 1390 1377 1298 1247 1197 1142 1043 1002 854 814
0 0 0 0 0 0 0 0 4 24 45 58 53 63 73 94 131 160 170 189 201 252 262 246 238 257 288 307 301 328 340 367 368 365 369 359 333 309 307 365 389 416 516 577 630 681 757 784 872 899 924 881 875 865 874 900 948 967 1071 1108 1140 1140 1164 1169 1177 1184 1188 1223 1238 1275 1298 1331 1370 1424 1442 1490 1501 1533 1548 1596 1625 1667 1632 1581 1567 1516 1542 1541 1528 1484 1469 1427 1364 1379 1328 1299 1220 1163 1100 1023 909 878 797 774 719 706 690 696 707 750 847 882 1014 1031 1050 1052 1045 1038 1038 1043 1046 1055 1056 1066 1074 1083 1100 1163 1174 1274 1333 1353 1337 1378 1406 1428 1414 1373 1360 1323 1311 1307 1340 1384 1409 1374 1329 1316 1311 1317 1333 1328 1272 1227 1177 1121 1017 975 812 766
0 0 0 0 0 0 0 0 7 38 60 67 58 62 70 94 137 171 182 207 221 266 279 279 274 293 317 342 347 352 362 397 400 399 399 401 373 344 328 369 396 423 519 572 615 661 736 765 865 902 956 930 937 976 983 955 1005 1040 1140 1156 1167 1171 1170 1163 1162 1164 1167 1199 1216 1267 1294 1332 1378 1437 1458 1514 1524 1561 1562 1499 1503 1509 1518 1512 1501 1483 1529 1546 1532 1482 1451 1444 1359 1366 1323 1296 1215 1157 1092 1018 911 882 817 801 735 722 704 709 720 749 854 890 970 985 1009 1012 1021 1030 1033 1041 1042 1050 1053 1063 1069 1078 1097 1133 1156 1263 1295 1391 1431 1504 1457 1425 1389 1348 1317 1265 1260 1263 1289 1347 1335 1291 1259 1248 1230 1234 1254 1254 1226 1192 1148 1092 978 925 762 754
0 0 0 0 0 0 0 3 27 51 69 73 63 61 66 91 136 175 190 222 235 268 283 301 300 321 340 365 382 373 378 408 415 432 432 428 411 383 360 378 399 423 509 555 592 639 716 744 846 892 994 1016 1069 1092 1080 1071 1102 1114 1157 1163 1169 1175 1176 1157 1146 1151 1155 1185 1203 1254 1298 1339 1388 1460 1486 1535 1547 1555 1538 1452 1450 1446 1442 1439 1436 1443 1438 1540 1535 1472 1437 1421 1384 1367 1314 1293 1210 1151 1079 1009 915 887 835 821 757 743 717 723 739 765 838 862 930 948 985 996 1011 1023 1026 1035 1039 1048 1051 1060 1066 1077 1091 1116 1146 1223 1262 1375 1404 1459 1456 1385 1336 1287 1241 1189 1170 1158 1171 1168 1159 1141 1109 1077 1072 1071 1061 1059 1057 1044 1018 962 821 783 750 748
0 0 0 0 0 0 0 3 40 67 77 76 68 66 66 87 128 171 190 229 242 268 280 313 318 346 361 383 403 393 392 410 419 447 452 454 443 422 401 411 429 438 497 540 579 627 707 737 833 869 978 1005 1074 1120 1134 1114 1109 1115 1147 1153 1161 1166 1166 1151 1141 1146 1153 1176 1186 1228 1301 1355 1400 1487 1505 1519 1506 1468 1445 1386 1376 1374 1372 1372 1373 1391 1401 1417 1412 1458 1422 1407 1370 1355 1303 1285 1212 1145 1080 1006 914 892 859 852 807 790 739 739 756 794 847 864 920 938 980 990 1005 1018 1021 1034 1037 1048 1051 1062 1065 1081 1099 1119 1145 1223 1262 1375 1404 1459 1456 1385 1336 1287 1241 1189 1170 1158 1171 1168 1159 1141 1109 1077 1072 1071 1061 1059 1057 1044 1018 962 821 783 750 748
0 0 0 0 0 0 0 3 40 74 86 83 74 73 70 86 117 159 187 227 240 265 278 315 324 366 378 393 416 417 412 420 428 459 467 473 470 451 436 440 453 460 493 531 575 622 707 737 833 865 954 981 1078 1141 1127 1091 1088 1097 1131 1138 1153 1157 1150 1138 1136 1139 1141 1145 1147 1187 1257 1327 1398 1511 1530 1490 1481 1427 1400 1323 1301 1297 1295 1290 1294 1320 1333 1370 1373 1441 1406 1391 1350 1335 1286 1270 1206 1151 1082 1020 914 894 869 861 833 820 792 774 776 804 858 877 929 944 982 990 1004 1013 1019 1035 1039 1048 1051 1064 1069 1094 1114 1128 1152 1230 1266 1388 1420 1476 1464 1377 1305 1257 1217 1155 1131 1111 1111 1103 1087 1065 1013 995 998 994 976 970 954 934 906 866 793 769 755 755
0 0 0 0 0 0 0 3 35 69 85 85 75 75 72 86 110 145 179 225 240 267 280 313 323 370 382 395 415 428 429 437 444 468 477 491 495 488 469 456 463 470 498 534 582 634 721 751 838 867 948 974 1082 1116 1075 1051 1063 1070 1103 1113 1140 1145 1136 1116 1116 1114 1109 1100 1097 1122 1176 1249 1335 1462 1483 1476 1459 1377 1349 1257 1214 1200 1195 1191 1198 1233 1249 1302 1320 1358 1384 1376 1328 1310 1264 1253 1195 1151 1094 1028 927 897 873 869 852 847 817 797 800 820 849 882 935 949 988 997 1009 1016 1022 1038 1042 1051 1054 1070 1080 1114 1134 1146 1171 1248 1286 1451 1494 1469 1455 1353 1279 1226 1187 1115 1088 1069 1053 1034 1023 994 950 939 869 876 868 861 841 829 817 804 785 785 774 769
0 0 0 0 0 0 0 0 30 58 74 83 79 78 76 86 104 132 170 224 242 276 287 315 323 362 381 397 412 430 433 443 451 473 485 515 523 528 504 470 469 476 509 552 606 670 757 784 860 886 955 982 1091 1074 1028 1020 1033 1041 1079 1089 1118 1124 1107 1079 1075 1074 1070 1056 1052 1062 1121 1201 1308 1447 1470 1453 1424 1312 1278 1179 1123 1098 1094 1114 1126 1165 1181 1243 1265 1325 1354 1349 1301 1281 1239 1232 1190 1151 1101 1038 937 911 879 873 862 859 843 835 828 846 875 907 951 968 1001 1008 1017 1023 1030 1045 1049 1059 1064 1085 1106 1144 1159 1173 1198 1277 1320 1508 1527 1443 1423 1327 1260 1196 1154 1077 1051 1031 991 986 967 936 902 891 869 876 868 861 841 829 817 804 785 785 774 769
0 0 0 0 0 0 0 0 17 45 61 74 82 83 83 84 95 122 161 221 240 281 292 316 325 349 373 400 415 430 437 453 460 486 500 541 553 559 549 497 488 493 522 563 627 698 778 801 875 901 980 1013 1077 1026 988 984 1003 1011 1050 1061 1090 1097 1068 1032 1023 1027 1024 1010 1005 1013 1067 1140 1252 1392 1412 1401 1366 1240 1202 1099 1050 1024 1058 1104 1112 1135 1148 1196 1215 1286 1327 1326 1275 1253 1216 1209 1176 1151 1112 1048 976 923 883 878 890 890 887 887 897 929 982 1024 1054 1056 1070 1074 1075 1074 1082 1097 1102 1119 1150 1178 1191 1211 1219 1235 1254 1303 1338 1461 1419 1394 1373 1280 1210 1136 1058 992 975 957 910 891 879 865 849 844 834 830 823 820 809 810 804 800 793 791 781 778
0 0 0 0 0 0 0 0 6 29 51 66 81 83 86 86 91 114 151 212 231 279 292 317 323 339 365 397 415 422 431 458 469 497 510 560 582 596 592 552 545 550 541 569 630 698 780 801 869 895 983 1018 1038 976 947 949 969 978 1015 1028 1055 1060 1034 990 978 976 974 961 957 960 1015 1076 1172 1298 1317 1314 1285 1170 1133 1055 1046 1036 1041 1064 1074 1107 1121 1170 1190 1266 1311 1310 1253 1231 1194 1187 1162 1155 1114 1065 979 928 887 885 890 890 887 887 897 929 982 1024 1054 1056 1070 1074 1075 1074 1082 1097 1102 1119 1150 1178 1191 1211 1219 1235 1254 1303 1338 1461 1419 1394 1373 1280 1210 1136 1058 992 975 957 910 891 879 865 849 844 834 830 823 820 809 810 804 800 793 791 781 778
0 0 0 0 0 0 0 0 5 15 45 58 80 82 87 100 95 112 141 201 221 272 285 310 316 330 354 389 411 415 423 455 466 504 515 578 621 658 676 677 664 647 592 585 621 668 753 776 833 856 964 990 933 884 873 873 890 901 937 946 970 976 964 915 881 884 879 862 853 861 874 947 1009 1121 1148 1165 1148 1057 1029 974 957 955 967 996 1008 1052 1067 1126 1147 1226 1289 1295 1244 1223 1179 1171 1145 1128 1072 1036 988 931 914 916 915 917 929 936 981 1051 1117 1163 1166 1178 1212 1216 1219 1219 1222 1237 1243 1265 1301 1318 1310 1301 1311 1275 1290 1329 1342 1348 1343 1309 1284 1177 1102 1015 957 928 916 905 883 871 865 859 848 843 835 832 826 825 823 816 810 805 798 795 788 786
0 0 0 0 0 0 0 0 4 11 38 51 75 81 86 107 104 114 133 190 209 260 275 300 307 326 343 371 399 412 417 452 466 504 515 578 621 658 676 677 664 647 592 585 621 668 753 776 833 856 964 990 933 884 873 873 890 901 937 946 970 976 964 915 881 884 879 862 853 861 874 947 1009 1121 1148 1165 1148 1057 1029 974 957 955 967 996 1008 1052 1067 1126 1147 1226 1262 1295 1244 1223 1179 1171 1145 1128 1072 1036 988 931 914 916 915 917 929 936 981 1051 1117 1163 1166 1178 1212 1216 1219 1219 1222 1237 1243 1265 1301 1318 1310 1301 1311 1409 1295 1304 1306 1292 1283 1235 1207 1067 972 963 947 921 913 906 888 876 868 861 848 844 835 833 828 826 820 817 813 806 800 798 790 788
0 0 0 0 0 0 0 0 0 6 32 42 57 67 73 95 104 113 125 167 185 232 248 281 290 312 336 363 386 410 413 429 438 477 493 562 620 666 706 729 726 717 673 622 608 639 709 734 804 834 954 960 854 803 778 767 791 805 846 858 890 901 917 884 818 793 789 768 757 751 756 771 822 938 956 983 977 929 907 867 884 884 893 924 942 1000 1020 1083 1121 1256 1291 1320 1289 1262 1206 1191 1116 1084 1043 1032 1007 975 945 941 943 949 977 990 1054 1117 1193 1262 1361 1397 1491 1450 1417 1439 1422 1422 1414 1535 1537 1491 1469 1413 1395 1394 1277 1261 1253 1225 1211 1165 1139 986 980 967 952 928 919 910 888 877 869 860 847 843 837 836 828 827 822 816 812 807 803 800 794 792
0 0 0 0 0 0 0 0 0 6 32 42 57 67 73 95 104 113 125 167 185 232 248 281 290 312 336 363 386 410 413 429 438 477 493 562 620 666 706 729 726 717 673 622 608 639 709 734 804 834 954 960 854 803 778 767 791 805 846 858 890 901 917 884 818 793 789 768 757 751 756 771 822 846 854 866 863 838 826 774 799 847 854 875 913 976 996 1081 1127 1269 1304 1337 1310 1290 1224 1199 1104 1079 1058 1053 1040 1005 972 970 970 978 1013 1027 1095 1161 1229 1287 1376 1380 1423 1444 1484 1520 1587 1629 1618 1566 1547 1494 1471 1413 1380 1352 1246 1208 1194 1164 1146 1019 1019 995 984 975 959 933 923 913 887 876 867 859 849 846 839 835 830 828 822 820 814 809 805 803 797 795
0 0 0 0 0 0 0 0 0 3 5 11 29 42 53 81 93 109 115 145 159 199 214 261 273 302 332 361 389 409 414 432 444 480 498 561 601 647 685 751 767 777 732 692 667 665 715 740 826 858 911 912 812 722 681 670 690 703 752 770 820 834 864 863 819 741 713 650 661 681 639 676 709 762 764 764 760 744 738 716 713 758 813 836 877 948 976 1103 1148 1282 1312 1347 1330 1311 1238 1210 1103 1083 1070 1069 1066 1058 1053 1053 1012 1020 1058 1075 1150 1208 1261 1312 1395 1422 1460 1471 1612 1728 1703 1634 1618 1557 1537 1472 1451 1389 1343 1301 1210 1158 1141 1055 1046 1025 1020 1005 995 982 965 936 924 913 886 875 867 859 852 848 842 839 833 830 823 820 817 815 808 806 800 799
0 0 0 0 0 0 0 0 0 0 3 4 14 25 37 70 87 108 118 138 148 184 199 244 260 299 327 358 392 417 420 435 449 495 513 568 603 643 674 742 763 780 755 739 723 705 735 760 841 861 873 871 798 711 663 649 666 675 711 728 785 801 832 837 809 723 685 596 574 571 592 628 665 671 662 687 680 665 661 655 657 700 753 788 841 882 914 1038 1077 1271 1302 1329 1331 1320 1252 1223 1119 1096 1076 1079 1082 1087 1119 1123 1139 1146 1157 1166 1222 1256 1293 1341 1411 1432 1512 1520 1643 1740 1698 1634 1613 1539 1514 1443 1418 1342 1294 1244 1174 1083 1071 1052 1047 1033 1027 1015 1005 991 971 933 921 911 884 874 866 860 855 851 844 841 836 832 824 820 819 818 811 810 804 803
0 0 0 0 0 0 0 0 0 0 0 0 2 9 19 60 81 108 127 138 144 173 184 223 241 294 323 352 388 426 425 440 454 508 528 573 608 641 674 737 764 785 793 797 781 758 763 783 845 855 833 825 769 700 655 640 648 653 683 696 746 762 796 799 767 685 635 536 519 529 556 596 627 631 606 612 601 602 600 597 605 663 692 737 772 855 893 1015 1057 1171 1198 1261 1312 1313 1266 1240 1142 1115 1089 1090 1094 1110 1157 1170 1199 1202 1214 1225 1268 1299 1330 1367 1426 1443 1529 1554 1681 1742 1689 1616 1590 1510 1482 1397 1366 1296 1243 1186 1112 1065 1062 1044 1042 1038 1033 1024 1013 999 976 934 924 916 888 876 869 866 859 855 847 846 844 842 832 825 826 823 819 817 811 808
0 0 0 0 0 0 0 0 0 0 0 0 3 4 8 48 76 112 142 148 146 162 171 205 224 292 326 351 382 425 429 443 460 521 537 583 628 649 680 740 768 791 837 869 849 817 794 807 846 844 801 782 728 680 646 634 629 634 660 671 706 719 754 752 711 636 583 489 482 506 539 574 588 582 560 560 549 556 548 560 563 600 626 666 716 814 851 970 1009 1122 1152 1204 1281 1297 1276 1253 1169 1141 1105 1102 1109 1130 1191 1207 1239 1243 1256 1263 1306 1333 1361 1390 1444 1461 1642 1691 1738 1715 1672 1606 1573 1470 1440 1350 1319 1244 1184 1127 1083 1062 1059 1052 1047 1041 1040 1033 1024 1011 990 950 967 985 925 878 880 884 876 870 863 863 871 881 894 893 881 869 839 842 832 825
0 0 0 0 0 0 0 0 0 0 0 0 0 3 5 32 68 108 154 165 160 152 158 187 205 283 324 349 373 416 426 447 467 534 548 586 630 658 687 742 767 790 852 900 914 883 830 830 836 828 773 749 690 656 633 617 601 605 631 638 665 675 702 698 654 573 529 461 462 493 510 539 550 538 511 508 505 515 513 503 506 553 584 623 671 762 797 906 943 1054 1090 1141 1246 1279 1294 1276 1205 1181 1133 1122 1131 1156 1216 1230 1263 1270 1289 1300 1339 1364 1389 1414 1465 1528 1673 1665 1646 1648 1646 1592 1554 1438 1404 1314 1277 1144 1111 1087 1074 1065 1062 1056 1054 1048 1047 1047 1049 1057 1080 1103 1108 1110 1077 1047 992 957 956 948 943 943 999 1001 1006 998 974 947 925 913 877 862
0 0 0 0 0 0 0 0 0 0 0 0 0 0 3 19 59 102 160 191 186 156 153 174 192 266 313 345 366 403 416 454 474 534 549 587 622 657 690 740 756 775 850 913 931 905 854 842 823 813 750 726 659 630 608 585 563 568 582 585 606 612 638 629 592 518 487 450 453 490 499 499 489 481 471 464 465 467 466 464 465 482 527 582 624 711 745 848 882 988 1006 1064 1207 1254 1311 1301 1244 1218 1172 1157 1171 1198 1237 1252 1281 1290 1317 1330 1371 1392 1414 1440 1520 1579 1611 1614 1623 1620 1611 1581 1547 1420 1375 1266 1225 1144 1111 1087 1074 1065 1062 1056 1054 1048 1047 1047 1049 1057 1080 1103 1108 1110 1077 1047 992 957 956 948 943 943 999 1001 1006 998 974 947 925 913 877 862
0 0 0 0 0 0 0 0 0 0 0 0 0 0 0 9 47 95 159 208 207 177 166 167 182 250 296 334 360 395 409 459 473 527 543 596 627 660 696 740 754 769 851 927 945 914 863 845 800 788 731 705 631 603 583 557 529 530 537 538 540 552 560 561 524 476 454 442 446 477 424 409 392 379 376 383 386 375 357 380 389 413 428 450 486 553 582 674 706 824 875 1008 1169 1206 1303 1323 1307 1292 1253 1244 1244 1252 1276 1286 1320 1333 1367 1380 1420 1433 1507 1595 1599 1581 1542 1534 1523 1517 1514 1494 1489 1362 1308 1182 1154 1110 1095 1085 1077 1067 1065 1061 1060 1057 1059 1072 1082 1141 1239 1355 1367 1363 1283 1219 1143 1100 1107 1121 1172 1172 1149 1145 1129 1112 1093 1067 1025 988 919 902
0 0 0 0 0 0 0 0 0 0 0 0 0 0 0 6 43 86 143 214 218 199 184 168 179 234 275 314 348 395 407 458 469 514 531 598 636 665 704 754 767 783 872 941 945 921 865 848 780 762 702 676 606 572 555 533 505 505 508 505 493 490 500 500 469 439 429 428 434 427 424 409 392 379 376 383 386 375 357 380 389 413 428 450 486 553 582 674 706 824 875 1008 1169 1206 1303 1323 1307 1292 1253 1244 1244 1252 1276 1286 1320 1333 1367 1380 1420 1433 1507 1595 1599 1581 1542 1534 1523 1517 1514 1494 1489 1362 1308 1182 1154 1110 1095 1085 1077 1067 1065 1061 1060 1057 1059 1072 1082 1141 1239 1355 1367 1363 1283 1219 1143 1164 1178 1202 1234 1230 1214 1207 1187 1183 1150 1112 1079 1018 941 914
0 0 0 0 0 0 0 0 0 0 0 0 0 0 0 3 9 47 97 175 196 215 211 182 176 207 239 273 312 374 391 440 458 513 527 590 633 675 722 788 812 840 924 942 930 905 853 832 764 734 646 621 554 522 504 490 475 472 464 455 433 430 428 426 418 411 405 370 348 322 317 246 233 231 236 245 251 277 286 315 326 362 394 427 458 508 525 626 674 828 877 985 1116 1142 1222 1260 1346 1353 1328 1315 1310 1311 1330 1338 1368 1381 1425 1427 1465 1530 1604 1614 1542 1498 1395 1410 1429 1417 1374 1377 1368 1272 1219 1131 1118 1097 1088 1083 1077 1072 1071 1066 1065 1070 1075 1105 1148 1215 1300 1418 1418 1403 1345 1303 1265 1242 1269 1278 1285 1285 1276 1264 1237 1227 1198 1175 1122 1062 976 952
0 0 0 0 0 0 0 0 0 0 0 0 0 0 0 3 9 47 97 175 196 215 211 182 176 207 239 273 312 374 391 440 458 513 527 590 633 675 722 788 812 840 924 942 930 905 853 832 764 734 646 621 554 522 504 490 475 472 464 455 433 430 428 426 418 411 405 370 348 322 317 246 233 231 236 245 251 277 286 315 326 362 394 427 458 508 525 626 674 828 877 985 1116 1142 1222 1260 1346 1353 1328 1315 1357 1363 1382 1391 1422 1433 1464 1471 1510 1570 1596 1588 1517 1473 1372 1354 1332 1355 1353 1312 1310 1228 1184 1121 1112 1095 1090 1085 1081 1076 1075 1070 1070 1076 1082 1121 1180 1259 1345 1431 1430 1419 1370 1337 1315 1307 1317 1329 1336 1336 1322 1312 1288 1278 1253 1213 1166 1112 1025 1001
0 0 0 0 0 0 0 0 0 0 0 0 0 0 0 0 4 10 48 106 127 198 211 203 189 185 209 238 270 330 351 419 442 511 530 583 617 650 699 794 828 863 928 927 910 881 826 806 737 711 618 591 519 486 464 455 452 443 418 407 392 393 403 404 411 402 385 296 263 211 204 201 215 229 245 268 277 306 315 333 335 367 410 453 492 546 565 630 658 815 860 939 1055 1080 1163 1196 1297 1334 1430 1464 1415 1419 1432 1440 1471 1483 1509 1516 1572 1587 1571 1557 1494 1452 1362 1347 1330 1319 1309 1280 1268 1175 1154 1117 1108 1096 1093 1088 1086 1081 1079 1075 1075 1084 1092 1157 1246 1314 1384 1445 1459 1453 1408 1398 1373 1365 1369 1378 1387 1389 1371 1364 1332 1320 1289 1252 1210 1154 1083 1060
0 0 0 0 0 0 0 0 0 0 0 0 0 0 0 0 4 10 48 77 96 169 193 212 203 180 197 224 253 308 329 399 422 492 515 568 603 644 691 786 822 856 919 920 901 873 816 794 721 695 608 580 501 482 448 433 426 416 397 385 377 380 392 396 401 392 359 246 222 200 198 205 219 240 266 310 322 360 367 396 415 445 463 491 527 573 593 658 680 817 859 933 1029 1056 1140 1168 1270 1308 1422 1489 1540 1546 1552 1558 1584 1594 1604 1602 1604 1574 1549 1529 1479 1440 1374 1359 1333 1314 1297 1262 1246 1170 1151 1115 1109 1100 1096 1092 1091 1087 1085 1082 1081 1096 1107 1206 1285 1340 1432 1499 1505 1498 1464 1472 1445 1421 1424 1428 1440 1445 1440 1429 1383 1366 1326 1292 1246 1199 1115 1091
0 0 0 0 0 0 0 0 0 0 0 0 0 0 0 0 0 4 9 54 74 134 163 208 206 181 186 210 238 285 302 366 391 469 495 562 595 644 692 779 815 849 908 914 894 865 803 782 708 681 597 569 489 470 432 408 397 388 375 370 362 365 376 378 375 351 311 208 196 196 198 206 223 252 294 397 412 452 463 472 499 554 582 631 669 624 634 706 725 833 873 944 1022 1048 1126 1152 1257 1289 1400 1486 1523 1538 1540 1548 1569 1578 1593 1600 1591 1560 1534 1509 1467 1449 1405 1391 1353 1313 1287 1254 1232 1165 1147 1118 1113 1103 1098 1095 1094 1092 1091 1089 1091 1112 1130 1254 1315 1444 1443 1477 1495 1503 1524 1539 1542 1502 1482 1491 1497 1505 1481 1469 1425 1408 1352 1322 1280 1220 1138 1112
0 0 0 0 0 0 0 0 0 0 0 0 0 0 0 0 0 0 5 33 56 106 130 192 202 185 179 196 223 261 275 344 373 458 487 562 601 648 699 777 809 844 897 904 890 854 787 766 695 670 590 562 481 461 414 385 372 371 361 357 337 336 340 334 320 285 243 187 188 198 199 211 235 275 367 443 470 519 531 554 570 630 671 719 755 752 743 763 780 873 919 990 1038 1058 1128 1154 1250 1282 1393 1449 1480 1493 1513 1520 1534 1539 1549 1553 1553 1542 1519 1492 1466 1459 1433 1416 1370 1324 1287 1237 1216 1156 1143 1121 1116 1107 1104 1102 1100 1100 1100 1101 1104 1132 1157 1325 1379 1530 1516 1492 1527 1537 1577 1592 1606 1578 1550 1550 1544 1542 1510 1490 1442 1424 1374 1342 1302 1246 1161 1135
0 0 0 0 0 0 0 0 0 0 0 0 0 0 0 0 0 0 3 13 30 86 100 160 179 186 180 188 207 248 263 330 360 450 481 559 604 653 705 785 817 843 885 888 876 845 775 754 684 660 583 558 475 452 393 362 352 352 345 339 303 291 276 271 250 212 192 181 182 195 197 220 315 404 432 516 548 618 649 625 612 699 750 789 813 818 812 826 841 958 989 1034 1073 1084 1136 1160 1245 1279 1367 1406 1427 1443 1468 1477 1497 1504 1517 1519 1519 1511 1497 1483 1464 1463 1450 1441 1410 1357 1300 1220 1196 1150 1140 1124 1121 1112 1111 1109 1108 1110 1113 1121 1127 1178 1222 1358 1409 1498 1500 1496 1534 1546 1591 1589 1694 1653 1636 1620 1593 1582 1536 1519 1464 1446 1393 1359 1328 1288 1197 1169
0 0 0 0 0 0 0 0 0 0 0 0 0 0 0 0 0 0 0 5 15 64 79 126 148 178 179 183 199 239 251 315 346 442 472 552 600 651 703 791 822 844 870 868 859 830 768 747 676 651 576 550 467 440 375 342 330 331 316 304 253 240 211 207 196 168 169 182 182 195 200 268 400 478 578 698 725 649 659 677 649 753 800 837 859 881 884 898 912 1015 1038 1068 1098 1109 1152 1174 1242 1267 1337 1364 1379 1397 1423 1431 1455 1461 1473 1475 1476 1471 1463 1459 1458 1457 1462 1464 1459 1434 1357 1224 1197 1150 1142 1128 1125 1119 1118 1115 1118 1123 1132 1153 1164 1218 1256 1343 1377 1415 1430 1475 1514 1530 1566 1589 1694 1653 1636 1620 1593 1582 1536 1519 1464 1446 1393 1359 1328 1288 1197 1169
0 0 0 0 0 0 0 0 0 0 0 0 0 0 0 0 0 0 0 5 7 44 60 99 115 163 173 178 191 228 242 311 341 434 464 549 594 647 697 790 818 838 850 846 835 812 776 738 670 643 565 540 457 428 353 319 305 302 278 263 212 202 184 182 171 168 168 185 185 218 225 375 457 555 636 746 776 791 732 738 758 786 833 866 896 920 929 976 995 1054 1071 1095 1119 1130 1170 1188 1244 1264 1317 1337 1348 1359 1380 1388 1410 1415 1425 1426 1424 1423 1420 1419 1424 1426 1437 1445 1468 1473 1442 1252 1212 1156 1146 1134 1130 1126 1125 1127 1133 1143 1161 1190 1200 1239 1258 1314 1334 1380 1416 1449 1478 1500 1581 1605 1698 1712 1664 1642 1605 1593 1548 1533 1483 1464 1407 1377 1346 1299 1210 1178
0 0 0 0 0 0 0 0 0 0 0 0 0 0 0 0 0 0 0 3 4 26 43 81 92 138 161 173 185 222 237 306 334 426 455 538 583 635 689 782 810 828 832 821 806 791 754 721 658 632 555 529 448 419 337 301 278 262 237 222 184 176 172 174 171 168 171 193 203 261 303 425 504 595 662 756 786 881 898 801 824 827 859 887 920 956 965 1007 1022 1071 1085 1112 1145 1155 1198 1210 1253 1267 1305 1318 1327 1334 1343 1348 1365 1368 1375 1377 1380 1379 1380 1382 1391 1393 1407 1415 1447 1486 1466 1403 1348 1175 1156 1143 1139 1136 1134 1140 1147 1164 1185 1213 1222 1248 1259 1292 1303 1338 1371 1410 1450 1469 1540 1566 1670 1714 1685 1651 1616 1603 1564 1552 1509 1490 1433 1400 1366 1317 1230 1200
0 0 0 0 0 0 0 0 0 0 0 0 0 0 0 0 0 0 0 0 3 10 23 66 76 111 142 165 181 221 236 296 323 412 444 534 578 629 687 780 807 821 818 808 780 763 733 693 642 618 544 518 440 413 321 285 253 226 199 189 159 153 163 175 186 190 193 225 241 343 382 474 542 623 681 755 786 883 913 914 850 874 887 912 947 998 1001 1046 1057 1084 1094 1123 1170 1182 1215 1225 1265 1276 1299 1309 1314 1318 1320 1322 1333 1337 1342 1343 1350 1355 1356 1359 1367 1370 1386 1395 1432 1484 1531 1495 1400 1299 1239 1165 1158 1150 1150 1158 1176 1190 1204 1220 1226 1245 1253 1278 1286 1313 1336 1375 1423 1445 1510 1539 1635 1698 1702 1662 1621 1612 1586 1575 1534 1518 1469 1439 1396 1344 1257 1228
0 0 0 0 0 0 0 0 0 0 0 0 0 0 0 0 0 0 0 0 0 6 9 48 61 94 123 152 178 219 233 291 314 401 436 532 580 632 691 779 800 811 807 794 759 733 706 668 618 599 532 506 431 404 312 269 230 200 173 163 139 133 158 173 207 220 227 274 297 397 431 513 576 648 701 768 791 887 924 956 920 906 923 940 971 1023 1044 1091 1103 1115 1120 1141 1192 1203 1232 1241 1267 1274 1296 1302 1306 1308 1310 1311 1319 1322 1329 1331 1338 1344 1348 1350 1354 1361 1380 1391 1407 1493 1540 1571 1502 1432 1403 1347 1334 1299 1290 1274 1235 1220 1222 1227 1231 1242 1246 1265 1274 1293 1308 1333 1378 1406 1483 1506 1595 1652 1706 1728 1660 1649 1629 1618 1582 1568 1528 1499 1452 1394 1304 1281
0 0 0 0 0 0 0 0 0 0 0 0 3 7 7 0 0 0 0 0 0 4 6 30 45 80 103 136 171 217 229 283 304 393 430 530 584 636 703 780 795 802 796 783 746 713 677 644 592 576 520 497 418 390 307 260 218 181 150 141 131 127 143 158 213 243 258 320 346 439 468 561 609 667 718 784 808 893 924 1051 1072 954 955 978 1014 1068 1085 1131 1141 1157 1162 1174 1208 1220 1242 1248 1269 1275 1291 1296 1299 1301 1304 1306 1313 1316 1324 1326 1334 1339 1343 1347 1352 1358 1383 1396 1416 1506 1552 1593 1548 1432 1403 1347 1334 1299 1290 1274 1235 1220 1222 1227 1231 1242 1246 1265 1274 1293 1308 1333 1378 1406 1483 1506 1595 1652 1706 1728 1660 1649 1629 1618 1582 1568 1528 1499 1452 1394 1304 1281
0 0 0 0 0 0 0 0 0 0 0 0 3 10 14 15 0 0 0 0 0 0 4 16 32 66 85 117 156 212 223 274 296 381 417 527 584 638 706 756 783 792 785 772 739 699 653 614 565 552 503 481 402 377 304 259 212 169 135 130 127 127 130 131 166 215 243 327 357 454 488 615 677 726 768 834 861 921 948 1017 1020 1070 1095 1095 1128 1173 1175 1192 1198 1226 1237 1251 1259 1260 1263 1265 1272 1275 1283 1288 1290 1294 1302 1305 1312 1316 1324 1327 1336 1338 1345 1350 1353 1363 1407 1433 1461 1539 1555 1547 1538 1590 1589 1539 1503 1428 1413 1339 1291 1251 1236 1237 1241 1258 1264 1275 1280 1294 1305 1331 1377 1403 1483 1510 1596 1646 1691 1742 1771 1733 1671 1659 1618 1603 1563 1530 1484 1429 1363 1350
7 0 0 0 0 0 0 0 0 0 0 0 6 10 15 17 13 3 0 0 0 0 0 9 20 53 72 96 136 200 214 262 286 368 405 520 580 632 698 750 769 775 772 760 724 686 634 589 542 530 477 455 385 362 291 251 210 165 124 122 124 124 125 131 166 215 243 327 357 454 488 615 677 726 768 834 861 921 948 1017 1020 1070 1095 1095 1128 1173 1175 1192 1198 1226 1237 1251 1259 1260 1263 1265 1272 1275 1283 1288 1290 1294 1302 1305 1312 1316 1324 1327 1336 1338 1345 1350 1353 1363 1407 1433 1461 1539 1555 1547 1538 1590 1589 1539 1503 1428 1413 1339 1291 1251 1236 1237 1241 1258 1264 1275 1280 1294 1305 1331 1377 1403 1486 1513 1595 1646 1690 1702 1698 1695 1692 1684 1644 1629 1574 1540 1495 1458 1406 1386
7 9 0 0 0 0 0 0 0 4 5 3 5 10 15 21 29 28 12 0 0 0 0 4 6 40 56 73 98 166 186 252 273 353 382 490 558 613 665 721 739 735 716 713 688 644 596 552 504 490 435 415 347 325 259 224 191 159 120 118 121 119 121 119 128 162 189 309 347 462 505 639 705 765 862 951 929 974 992 1062 1091 1166 1187 1195 1205 1216 1222 1245 1272 1327 1330 1322 1318 1315 1289 1283 1280 1281 1288 1293 1298 1301 1316 1320 1335 1342 1347 1347 1358 1363 1366 1376 1391 1406 1455 1465 1475 1519 1516 1519 1527 1512 1510 1469 1436 1356 1338 1300 1286 1273 1265 1278 1284 1301 1300 1298 1300 1311 1321 1354 1405 1427 1491 1516 1594 1643 1659 1659 1677 1681 1677 1693 1671 1654 1597 1550 1505 1465 1405 1386
7 9 0 0 0 0 0 0 0 4 5 3 5 10 15 21 29 28 12 0 0 0 0 4 6 40 56 73 98 166 186 252 273 353 382 490 525 613 665 721 739 735 716 713 688 644 596 552 504 490 435 415 347 325 259 224 191 159 120 118 121 119 121 119 128 162 189 309 347 462 505 639 705 765 862 951 929 974 992 1062 1091 1166 1187 1195 1205 1216 1222 1245 1272 1327 1330 1322 1318 1315 1319 1311 1297 1297 1295 1303 1310 1317 1332 1346 1363 1363 1373 1379 1391 1391 1409 1419 1436 1437 1455 1467 1478 1507 1511 1493 1483 1460 1445 1411 1385 1312 1301 1287 1279 1275 1274 1289 1298 1330 1338 1330 1327 1330 1344 1371 1414 1438 1502 1524 1587 1607 1609 1610 1635 1647 1666 1705 1696 1675 1607 1553 1506 1468 1398 1377
5 10 14 11 0 0 0 0 0 8 3 0 6 12 16 34 40 45 37 3 0 0 0 0 4 26 44 59 81 137 157 236 261 328 353 449 486 591 645 694 712 705 665 658 641 608 564 524 487 470 410 385 312 291 227 195 167 137 114 113 114 113 113 112 145 191 219 332 372 491 536 657 731 834 917 1013 1039 1043 1010 1072 1091 1113 1121 1145 1182 1236 1254 1308 1327 1368 1385 1391 1364 1358 1341 1327 1323 1327 1332 1331 1335 1341 1355 1375 1390 1390 1406 1396 1417 1437 1452 1437 1416 1488 1538 1531 1523 1478 1459 1443 1429 1406 1392 1347 1328 1291 1284 1277 1275 1274 1278 1295 1303 1341 1358 1388 1382 1374 1382 1408 1456 1483 1530 1546 1570 1596 1583 1571 1600 1606 1641 1686 1693 1675 1604 1550 1507 1465 1391 1368
0 3 6 6 5 2 0 0 0 3 1 0 6 11 16 34 46 49 40 1 0 0 0 0 3 14 38 57 78 127 144 224 250 316 339 435 471 580 635 680 701 696 653 642 615 588 551 506 467 454 391 367 296 272 219 184 153 125 111 109 105 104 108 108 164 207 236 348 387 505 547 660 731 831 899 874 903 954 968 1008 1018 1040 1060 1094 1135 1205 1229 1309 1336 1397 1409 1413 1394 1382 1364 1367 1357 1360 1364 1364 1360 1376 1400 1419 1446 1446 1423 1427 1430 1429 1475 1524 1511 1516 1494 1479 1463 1422 1406 1392 1376 1343 1333 1305 1292 1275 1272 1270 1269 1271 1278 1296 1304 1337 1356 1425 1442 1440 1451 1474 1504 1519 1491 1499 1549 1518 1524 1554 1564 1572 1600 1606 1686 1674 1599 1553 1508 1468 1383 1359
0 0 0 0 6 2 0 0 0 0 0 0 8 13 19 40 52 53 46 2 3 0 0 0 0 6 27 51 71 117 133 211 241 314 336 429 463 569 626 665 686 683 644 629 593 574 537 489 441 428 366 345 277 259 210 173 139 115 112 107 100 100 106 109 168 220 253 358 396 511 547 650 709 712 769 832 851 898 910 942 953 987 1021 1061 1105 1178 1204 1289 1319 1405 1421 1460 1433 1418 1400 1398 1398 1399 1404 1406 1408 1426 1447 1477 1442 1447 1446 1445 1428 1428 1506 1483 1469 1462 1439 1426 1412 1364 1338 1322 1312 1296 1288 1274 1270 1266 1265 1265 1266 1269 1276 1294 1301 1333 1353 1434 1463 1518 1522 1526 1536 1534 1478 1478 1512 1503 1502 1497 1510 1521 1570 1578 1590 1615 1593 1551 1510 1464 1415 1357
0 0 0 0 8 7 0 0 0 0 0 0 11 19 24 46 58 64 51 2 3 0 0 0 0 1 19 43 67 115 128 197 226 310 335 421 454 553 612 650 668 668 635 619 576 563 522 474 416 400 338 318 262 245 195 161 128 111 106 102 98 99 104 107 167 227 260 363 401 506 533 613 665 672 718 773 790 836 851 894 908 954 993 1035 1085 1162 1184 1260 1288 1397 1436 1503 1468 1454 1435 1430 1432 1433 1431 1434 1448 1469 1448 1459 1459 1459 1477 1433 1401 1399 1442 1423 1414 1409 1392 1384 1372 1319 1293 1277 1270 1266 1264 1262 1261 1260 1261 1262 1264 1267 1275 1291 1298 1329 1348 1436 1475 1546 1570 1568 1553 1539 1449 1443 1459 1439 1433 1451 1453 1462 1509 1522 1558 1598 1589 1569 1511 1464 1418 1363
0 0 0 0 6 8 0 0 0 0 0 0 15 23 28 50 62 67 54 10 4 0 0 0 0 3 10 36 63 108 121 181 208 302 330 414 445 540 595 634 651 653 629 611 565 544 505 455 404 387 319 298 246 231 184 147 117 105 101 99 97 98 104 110 175 235 265 366 399 481 501 570 619 657 693 726 745 783 795 857 876 933 973 1025 1073 1127 1144 1207 1234 1333 1384 1487 1541 1513 1475 1471 1465 1464 1473 1482 1459 1470 1480 1482 1536 1510 1451 1439 1409 1397 1375 1367 1368 1366 1354 1347 1335 1276 1261 1255 1254 1254 1255 1257 1257 1259 1260 1262 1264 1268 1276 1291 1298 1324 1341 1433 1470 1562 1588 1559 1481 1446 1369 1356 1336 1333 1334 1340 1338 1349 1405 1437 1500 1520 1544 1537 1502 1465 1424 1377
13 7 0 0 2 2 0 0 0 0 0 0 13 20 27 59 63 68 58 17 7 0 0 0 0 0 7 29 57 98 112 162 188 288 320 410 439 526 578 619 633 637 621 607 553 523 484 440 397 382 310 287 233 217 171 134 110 104 100 97 95 95 105 115 184 242 273 361 386 439 458 520 574 615 646 691 706 755 774 836 859 929 977 1021 1056 1115 1133 1198 1222 1311 1351 1443 1529 1540 1517 1513 1505 1504 1518 1504 1497 1515 1511 1573 1481 1461 1401 1392 1362 1353 1328 1323 1318 1316 1307 1297 1284 1249 1246 1245 1246 1250 1251 1254 1256 1259 1259 1262 1265 1270 1278 1291 1296 1322 1339 1430 1465 1560 1590 1559 1481 1446 1369 1356 1336 1333 1334 1340 1338 1349 1405 1437 1500 1520 1544 1537 1502 1465 1424 1377
27 25 7 2 0 1 0 0 0 0 0 0 11 18 25 55 67 76 69 36 27 1 0 0 0 0 1 21 48 75 104 156 179 273 305 402 431 513 567 605 620 622 611 600 548 509 470 428 386 373 304 280 221 204 155 121 102 102 97 95 92 93 110 124 198 252 280 350 364 404 420 471 530 578 617 670 686 738 755 820 845 925 977 1019 1051 1114 1131 1196 1224 1315 1365 1447 1536 1637 1591 1582 1569 1561 1546 1543 1544 1530 1496 1492 1383 1369 1329 1318 1273 1259 1228 1216 1211 1205 1210 1213 1217 1230 1235 1237 1239 1244 1246 1252 1253 1260 1261 1265 1272 1278 1286 1299 1305 1330 1346 1428 1459 1574 1548 1489 1418 1387 1293 1275 1245 1243 1242 1241 1248 1265 1318 1344 1399 1409 1442 1452 1460 1444 1418 1380
43 37 25 18 2 0 0 0 0 0 0 0 7 13 19 45 60 70 71 47 36 15 14 0 0 0 3 13 39 67 91 147 167 253 286 390 424 503 554 590 607 605 591 586 543 507 462 425 371 358 299 275 220 200 141 110 99 100 91 89 91 93 120 138 211 260 286 338 345 374 386 426 481 545 594 656 676 727 744 811 837 918 972 1019 1051 1109 1128 1207 1236 1361 1394 1447 1536 1637 1591 1582 1569 1561 1546 1543 1544 1530 1496 1492 1383 1369 1329 1318 1273 1259 1228 1216 1211 1205 1210 1213 1217 1230 1235 1237 1239 1244 1246 1252 1253 1260 1261 1265 1272 1278 1286 1299 1305 1330 1346 1428 1459 1574 1548 1489 1418 1387 1293 1275 1245 1243 1242 1241 1248 1265 1318 1344 1399 1409 1442 1452 1460 1444 1406 1375
109 91 70 60 24 12 0 0 0 0 0 0 2 4 10 36 54 63 65 57 48 12 11 0 0 0 0 1 18 46 72 113 138 216 244 356 397 488 533 563 581 583 555 545 524 499 467 418 357 344 283 263 220 203 146 110 90 88 83 84 99 106 149 164 218 260 276 305 311 321 328 373 433 521 578 642 660 713 732 801 829 907 959 1012 1065 1122 1170 1263 1301 1400 1447 1522 1558 1588 1623 1639 1563 1542 1488 1472 1440 1419 1398 1366 1314 1302 1263 1248 1181 1157 1141 1145 1158 1176 1202 1208 1214 1222 1228 1233 1237 1244 1247 1254 1256 1263 1265 1276 1283 1293 1302 1324 1335 1379 1400 1514 1568 1552 1508 1464 1410 1378 1271 1248 1224 1222 1215 1215 1213 1218 1239 1252 1291 1305 1357 1368 1393 1397 1390 1365
109 91 70 60 24 12 0 0 0 0 0 0 2 4 10 36 54 63 65 57 48 12 11 0 0 0 0 1 18 46 72 113 138 216 244 356 397 488 533 563 581 583 555 545 524 499 467 418 357 344 283 263 220 203 146 110 90 88 83 84 99 106 149 164 218 260 276 305 311 321 328 373 433 521 578 642 660 713 732 801 829 907 959 1012 1065 1122 1170 1263 1301 1400 1447 1522 1558 1588 1623 1639 1563 1542 1488 1472 1440 1419 1398 1366 1314 1302 1263 1248 1181 1157 1141 1145 1158 1176 1202 1208 1214 1219 1226 1233 1240 1246 1248 1258 1261 1272 1274 1284 1296 1308 1318 1355 1368 1417 1440 1537 1567 1532 1514 1458 1408 1378 1271 1239 1214 1212 1206 1205 1204 1206 1216 1220 1244 1257 1300 1316 1354 1369 1370 1354
177 164 156 139 70 48 3 0 0 0 0 0 0 3 5 29 45 60 67 49 38 4 0 0 0 0 0 0 3 24 51 92 107 176 203 313 358 471 512 516 523 528 519 503 479 471 440 396 330 310 257 242 205 192 153 117 89 84 81 81 105 123 184 203 241 260 269 300 305 323 330 367 420 516 573 633 652 704 722 783 805 878 904 1011 1098 1158 1221 1330 1350 1391 1407 1447 1482 1505 1539 1551 1555 1513 1419 1401 1352 1323 1294 1272 1251 1243 1189 1162 1119 1124 1133 1143 1160 1174 1192 1197 1202 1215 1224 1235 1243 1251 1254 1266 1270 1283 1286 1295 1317 1340 1360 1385 1397 1448 1468 1559 1559 1517 1500 1446 1401 1372 1269 1238 1209 1207 1201 1197 1196 1195 1198 1199 1213 1221 1252 1270 1318 1343 1351 1339
177 164 156 139 70 48 3 0 0 0 0 0 0 3 5 29 45 60 67 49 38 4 0 0 0 0 0 0 3 24 51 92 107 176 203 313 358 471 512 516 523 528 519 503 479 471 440 396 330 310 257 242 205 192 153 117 89 82 81 82 111 135 198 213 251 270 279 319 333 357 360 384 433 517 576 637 656 710 726 779 800 870 899 1015 1097 1175 1229 1276 1295 1356 1370 1404 1438 1464 1498 1514 1521 1490 1387 1368 1323 1294 1265 1245 1219 1208 1143 1119 1113 1119 1131 1144 1158 1171 1187 1192 1198 1215 1228 1240 1249 1259 1263 1278 1285 1301 1303 1337 1349 1372 1394 1422 1435 1489 1515 1550 1543 1501 1483 1426 1381 1354 1260 1236 1206 1205 1195 1190 1188 1187 1189 1189 1194 1195 1218 1230 1278 1303 1323 1317
181 185 180 170 107 79 27 15 0 0 0 0 0 0 0 17 35 51 59 51 43 17 9 0 0 0 0 0 3 11 34 72 82 126 151 250 295 437 491 483 466 460 459 458 463 455 417 368 307 289 231 214 180 168 137 107 84 81 81 83 126 152 208 220 260 285 296 349 370 418 413 414 450 520 580 645 665 716 731 784 805 875 903 1005 1078 1135 1180 1245 1266 1325 1337 1368 1401 1427 1461 1476 1506 1482 1363 1341 1297 1270 1244 1219 1185 1172 1109 1094 1102 1107 1123 1139 1153 1169 1188 1193 1198 1220 1236 1250 1262 1280 1287 1310 1316 1328 1337 1361 1388 1411 1427 1450 1475 1518 1528 1529 1522 1479 1462 1406 1361 1335 1254 1230 1203 1200 1192 1188 1184 1181 1179 1178 1179 1180 1187 1192 1222 1241 1248 1247
167 174 182 175 124 97 36 24 4 0 0 0 0 0 0 13 31 47 57 56 52 28 21 0 0 0 0 0 0 8 27 60 70 103 125 221 260 401 472 472 445 431 434 439 456 450 411 368 314 294 233 211 164 155 125 98 80 79 81 87 145 168 220 230 267 300 313 379 410 470 469 449 472 519 580 657 678 728 744 799 819 885 910 997 1057 1110 1155 1223 1241 1292 1308 1337 1365 1392 1428 1443 1497 1480 1379 1340 1272 1249 1224 1192 1149 1133 1078 1067 1081 1085 1103 1121 1143 1168 1190 1195 1202 1230 1248 1267 1291 1323 1336 1358 1358 1375 1381 1407 1433 1457 1462 1471 1482 1497 1497 1493 1487 1453 1439 1388 1345 1321 1247 1229 1198 1196 1189 1187 1182 1177 1173 1171 1168 1168 1162 1161 1170 1197 1203 1204
151 157 177 181 144 118 51 38 4 0 0 0 0 0 0 10 26 42 56 57 56 38 28 6 3 0 0 0 0 5 19 47 57 90 105 185 218 346 433 455 422 407 403 414 438 422 385 356 304 290 233 212 158 146 114 89 77 77 88 99 155 177 223 234 279 316 331 408 443 512 520 519 522 540 585 632 685 755 775 823 844 904 923 994 1039 1080 1128 1191 1210 1262 1275 1304 1331 1357 1399 1419 1493 1473 1368 1327 1245 1225 1203 1173 1121 1101 1043 1039 1035 1024 1056 1094 1137 1168 1193 1199 1208 1249 1272 1301 1330 1361 1371 1389 1395 1411 1420 1451 1461 1488 1481 1464 1457 1453 1451 1446 1442 1427 1418 1380 1333 1306 1243 1232 1201 1194 1188 1185 1180 1175 1168 1165 1162 1160 1150 1146 1121 1117 1132 1131
134 139 168 182 170 145 63 47 11 2 0 2 3 4 5 11 26 37 50 52 50 47 40 19 14 0 0 0 0 1 14 32 42 75 90 153 183 293 378 427 403 385 374 387 402 368 338 310 261 249 215 200 156 142 100 82 78 77 88 105 171 189 231 247 306 345 363 438 471 549 569 598 587 597 617 646 693 764 787 854 871 924 942 974 1008 1047 1099 1164 1182 1223 1235 1260 1293 1324 1376 1398 1495 1466 1348 1308 1222 1200 1176 1150 1094 1072 1002 990 981 980 1014 1073 1124 1154 1189 1201 1214 1253 1287 1319 1349 1403 1418 1431 1439 1458 1464 1492 1502 1511 1485 1449 1429 1414 1413 1410 1409 1399 1395 1368 1323 1298 1245 1234 1209 1204 1187 1185 1181 1175 1166 1163 1156 1154 1145 1140 1121 1117 1132 1131
123 130 165 181 186 164 73 55 18 6 5 7 8 6 6 12 26 34 45 43 43 48 48 32 27 6 0 0 0 0 3 22 31 63 75 131 157 249 329 396 386 366 337 342 342 312 281 257 217 204 176 167 139 129 87 79 77 76 96 117 186 200 248 267 330 374 396 470 497 582 605 653 675 709 738 698 719 790 807 867 878 911 922 939 973 1011 1061 1139 1158 1186 1193 1217 1252 1291 1350 1388 1464 1455 1312 1275 1212 1186 1156 1131 1073 1044 946 929 936 933 955 1041 1103 1130 1153 1165 1180 1245 1288 1323 1360 1426 1445 1481 1492 1542 1553 1574 1570 1517 1471 1425 1392 1379 1378 1376 1376 1371 1370 1350 1322 1308 1265 1257 1232 1227 1211 1205 1194 1184 1168 1163 1151 1147 1137 1132 1111 1098 1089 1085
122 133 176 187 192 173 81 60 29 10 8 10 11 9 8 12 23 29 36 35 37 41 42 40 36 17 7 0 0 0 3 14 23 55 66 107 132 217 293 362 362 346 301 295 288 262 243 218 178 166 136 128 105 99 79 78 76 78 119 142 200 216 269 289 355 402 424 489 514 592 615 667 682 735 774 806 852 849 849 894 904 886 890 905 933 967 1018 1117 1137 1158 1163 1186 1222 1265 1333 1368 1422 1419 1303 1269 1197 1167 1140 1111 1047 1016 901 875 865 862 906 1000 1075 1111 1153 1165 1180 1245 1288 1323 1360 1405 1445 1481 1492 1542 1553 1574 1570 1517 1471 1425 1392 1379 1378 1376 1376 1371 1370 1350 1322 1308 1265 1257 1232 1227 1211 1205 1194 1184 1168 1163 1151 1147 1137 1132 1111 1098 1089 1085
130 150 197 202 189 173 87 65 33 14 10 10 10 10 10 11 21 24 28 29 30 32 33 40 39 30 25 0 0 0 0 11 18 45 56 98 116 196 267 331 334 319 274 261 239 234 226 203 148 133 100 95 82 82 81 79 78 87 142 161 216 235 295 318 395 430 447 499 520 583 602 645 659 720 767 812 860 922 938 933 943 904 883 882 901 931 979 1076 1096 1130 1142 1167 1199 1245 1321 1344 1375 1371 1322 1281 1179 1137 1110 1080 1019 988 860 828 814 812 842 944 1053 1092 1134 1150 1169 1233 1279 1322 1361 1394 1423 1465 1482 1544 1568 1600 1585 1513 1467 1419 1383 1374 1374 1369 1368 1364 1363 1349 1326 1312 1275 1263 1240 1237 1232 1225 1215 1203 1174 1167 1152 1147 1132 1126 1108 1097 1089 1084
139 170 217 219 183 166 89 67 35 26 13 11 12 12 12 12 16 22 25 25 25 25 26 35 36 34 32 7 0 0 0 12 18 40 50 86 102 173 236 288 296 285 249 235 216 208 199 175 119 104 81 77 77 79 81 85 92 107 159 177 233 254 327 352 426 457 468 503 519 563 574 602 617 683 740 795 853 943 971 1031 1020 941 912 886 892 913 951 1038 1057 1098 1112 1142 1185 1240 1308 1316 1322 1323 1302 1283 1165 1114 1083 1053 988 953 819 789 777 780 792 895 1025 1075 1119 1137 1156 1220 1244 1315 1354 1388 1414 1450 1468 1542 1567 1602 1589 1514 1464 1421 1383 1369 1369 1360 1358 1349 1347 1340 1328 1320 1289 1283 1269 1266 1258 1251 1243 1229 1203 1197 1161 1150 1125 1117 1099 1092 1086 1081
147 186 229 229 192 170 91 70 38 26 16 13 12 13 12 15 16 24 23 22 23 22 24 29 32 31 30 18 10 0 3 13 16 34 45 79 93 151 200 245 251 248 227 214 204 197 175 146 94 84 75 75 79 80 88 98 106 122 171 191 255 279 356 382 446 470 478 503 511 538 546 578 594 664 722 783 845 963 998 1077 1079 999 968 926 915 924 953 1016 1037 1080 1095 1135 1190 1239 1264 1269 1276 1275 1268 1258 1154 1094 1055 1025 951 909 781 755 752 756 758 847 987 1059 1112 1128 1146 1212 1237 1310 1347 1379 1405 1445 1463 1523 1556 1606 1593 1518 1474 1426 1385 1368 1366 1360 1358 1349 1347 1340 1328 1320 1289 1283 1269 1266 1258 1251 1243 1229 1203 1197 1161 1150 1125 1117 1099 1092 1086 1081
149 194 238 237 197 175 93 70 33 25 20 13 12 13 14 16 22 25 18 17 22 21 23 26 27 23 22 17 15 10 8 14 16 30 40 74 86 136 173 201 213 214 202 190 186 183 156 118 79 75 71 74 80 86 96 104 115 132 184 207 276 302 385 409 469 487 493 509 513 527 535 572 590 662 719 779 846 966 1011 1122 1131 1048 1015 980 961 965 1032 1104 1129 1171 1178 1187 1177 1167 1166 1171 1182 1182 1182 1177 1143 1067 1009 965 861 813 715 704 699 702 736 830 955 1042 1086 1121 1141 1206 1228 1303 1336 1361 1386 1432 1450 1509 1533 1585 1584 1533 1498 1463 1412 1376 1370 1355 1353 1342 1339 1329 1319 1314 1298 1294 1284 1283 1278 1277 1274 1272 1260 1251 1196 1177 1109 1095 1082 1081 1077 1074
153 195 239 239 196 178 96 70 30 28 22 15 13 14 13 15 21 22 20 20 19 22 21 21 22 19 18 16 15 13 11 17 20 27 36 66 77 124 155 171 184 185 172 164 150 141 121 91 73 72 72 73 83 91 110 112 126 146 200 223 298 325 410 432 493 512 515 525 526 531 535 571 592 671 727 787 858 983 1027 1159 1176 1102 1081 1055 1047 1018 1032 1104 1129 1171 1178 1187 1177 1167 1166 1171 1182 1182 1182 1177 1143 1067 1009 965 861 813 715 704 699 702 736 830 955 1042 1086 1121 1141 1206 1228 1303 1336 1361 1386 1432 1450 1509 1533 1585 1584 1533 1498 1463 1412 1376 1370 1355 1353 1342 1339 1329 1319 1314 1298 1294 1284 1283 1278 1277 1274 1272 1260 1251 1196 1177 1113 1093 1072 1071 1070 1066
171 193 230 231 193 173 86 60 27 26 26 19 14 13 13 15 23 25 25 26 25 28 27 22 22 19 19 16 18 15 15 17 20 30 34 56 65 99 134 145 140 133 117 110 91 82 103 115 138 138 126 125 127 131 153 162 184 205 247 269 346 372 445 466 532 552 582 601 594 581 585 603 624 713 779 854 937 1066 1106 1174 1176 1183 1188 1182 1134 1125 1137 1183 1209 1268 1247 1183 1111 1069 1064 1071 1087 1090 1084 1076 1040 991 932 878 744 703 672 674 679 686 738 769 952 1040 1087 1120 1140 1208 1233 1299 1328 1349 1371 1412 1439 1501 1503 1512 1505 1467 1461 1466 1463 1429 1408 1374 1370 1358 1352 1331 1319 1314 1305 1302 1294 1294 1294 1299 1309 1319 1294 1277 1218 1197 1118 1093 1064 1062 1060 1056
171 193 230 231 193 173 86 60 27 26 26 19 14 13 13 15 23 25 25 26 25 28 27 22 22 19 19 16 18 15 15 17 20 30 34 56 65 99 134 145 140 133 117 110 91 82 103 115 138 138 126 125 127 131 153 162 184 205 247 269 346 372 445 466 532 552 582 601 594 581 585 603 624 713 779 854 937 1066 1106 1174 1176 1183 1188 1182 1134 1125 1137 1183 1209 1268 1247 1183 1111 1069 1064 1071 1087 1090 1084 1076 1040 991 932 878 744 703 672 674 679 686 738 769 961 1044 1089 1124 1142 1205 1226 1294 1329 1351 1368 1423 1443 1490 1487 1469 1456 1428 1423 1428 1437 1432 1427 1405 1399 1386 1376 1344 1324 1322 1310 1307 1302 1304 1309 1320 1334 1340 1307 1286 1221 1200 1124 1093 1055 1053 1051 1048
188 203 216 217 181 156 73 58 36 30 24 24 21 19 17 18 19 22 24 26 25 23 24 25 25 23 25 21 15 14 14 17 20 32 36 56 61 87 114 124 119 111 85 78 70 106 153 205 252 245 198 193 192 194 220 225 251 278 323 342 392 415 472 487 542 566 619 653 643 634 644 692 708 771 833 915 989 1024 1032 1066 1077 1125 1142 1197 1241 1212 1196 1257 1274 1249 1214 1123 1035 979 951 960 999 1007 1001 987 935 891 840 768 669 661 663 665 695 717 787 826 986 1052 1095 1131 1150 1207 1226 1293 1329 1352 1374 1419 1449 1468 1461 1432 1420 1402 1397 1402 1405 1412 1415 1430 1432 1417 1402 1365 1344 1336 1323 1321 1321 1324 1340 1350 1358 1355 1310 1290 1220 1197 1117 1085 1047 1044 1042 1040
188 203 216 217 181 156 73 58 36 30 24 24 21 19 17 18 19 22 24 26 25 23 24 25 25 23 25 21 15 14 14 17 20 32 36 56 61 87 114 124 119 111 85 78 70 106 153 219 284 273 228 228 237 239 255 268 290 317 358 374 415 431 476 491 547 571 627 676 670 660 663 712 735 792 846 917 952 964 974 1022 1039 1087 1105 1183 1233 1250 1239 1253 1262 1235 1195 1102 1021 950 907 915 952 962 958 942 885 840 784 707 655 655 661 670 730 755 844 902 1012 1063 1103 1141 1160 1214 1228 1292 1327 1354 1377 1429 1459 1451 1439 1401 1393 1378 1371 1373 1376 1381 1386 1408 1416 1424 1424 1401 1379 1372 1356 1352 1360 1361 1368 1376 1375 1358 1326 1285 1215 1189 1112 1079 1041 1037 1036 1034
193 208 222 222 165 133 68 63 37 36 38 30 27 29 28 27 27 24 19 23 24 24 24 25 25 23 24 19 16 14 13 16 18 33 37 55 60 78 88 96 89 77 55 56 79 117 163 232 310 297 258 263 281 286 291 304 328 357 396 407 432 442 484 500 558 583 638 704 703 686 683 736 759 818 865 892 900 915 930 983 1002 1058 1082 1167 1196 1172 1170 1206 1215 1208 1171 1091 1027 947 880 881 910 919 908 892 835 787 720 660 644 648 677 695 769 800 924 961 1035 1068 1106 1151 1173 1223 1238 1294 1328 1356 1380 1448 1467 1428 1413 1374 1365 1345 1338 1336 1339 1341 1347 1367 1379 1394 1398 1419 1424 1415 1408 1410 1409 1407 1403 1397 1381 1354 1316 1276 1206 1181 1101 1070 1033 1032 1030 1029
187 204 218 218 154 121 78 73 38 40 40 32 30 31 30 29 28 26 25 24 20 23 23 22 21 24 26 26 21 18 17 16 18 29 35 48 53 70 79 79 63 52 51 60 94 137 180 257 320 311 285 292 312 317 326 337 359 388 430 437 453 459 497 516 573 597 657 725 730 714 713 763 784 842 856 856 852 872 890 953 974 1036 1065 1131 1117 1105 1115 1136 1137 1154 1151 1100 1031 969 881 866 874 878 855 838 784 722 658 626 639 660 710 735 836 874 973 1000 1056 1080 1112 1160 1183 1234 1246 1301 1331 1357 1387 1463 1462 1405 1389 1341 1329 1305 1289 1265 1254 1272 1297 1321 1328 1355 1364 1395 1454 1463 1466 1465 1453 1451 1432 1419 1378 1344 1306 1265 1201 1175 1091 1065 1028 1026 1027 1024
176 193 212 210 139 109 85 78 38 42 41 32 33 34 34 33 32 31 29 27 24 20 20 18 20 23 25 28 22 21 22 17 18 26 30 43 48 60 68 64 44 42 60 70 108 160 219 273 308 305 304 311 332 339 352 364 382 412 446 464 480 484 521 540 603 621 668 738 748 751 748 768 785 828 826 812 802 829 850 919 941 1014 1046 1083 1061 1058 1054 1083 1089 1109 1113 1095 1046 982 884 857 833 830 799 783 717 692 611 612 642 683 786 818 903 926 1000 1020 1066 1091 1122 1169 1195 1249 1265 1306 1335 1362 1416 1452 1438 1385 1362 1300 1287 1258 1229 1208 1196 1199 1209 1283 1290 1321 1333 1354 1448 1507 1515 1517 1497 1484 1441 1427 1378 1337 1298 1254 1172 1151 1078 1053 1020 1018 1017 1016
162 180 200 194 122 99 88 78 43 44 39 35 36 38 38 37 36 37 35 36 34 21 18 19 20 20 22 26 23 23 23 21 22 25 26 38 42 50 54 44 44 48 73 84 130 189 257 292 300 301 315 325 347 355 374 384 399 432 467 489 504 509 551 569 633 656 695 744 755 770 770 768 774 795 778 763 751 788 812 882 905 992 1020 1022 1011 985 970 996 1010 1065 1080 1081 1050 985 867 832 778 767 746 727 661 636 591 616 673 743 835 866 937 958 1014 1029 1072 1104 1139 1176 1196 1259 1275 1317 1342 1372 1439 1434 1415 1356 1332 1257 1235 1200 1171 1146 1133 1147 1157 1196 1211 1262 1281 1341 1435 1499 1556 1563 1528 1510 1456 1439 1379 1335 1289 1243 1172 1151 1078 1053 1020 1018 1017 1016
149 167 179 171 108 92 82 73 45 45 39 37 40 41 40 39 39 44 53 58 59 30 27 19 20 21 23 26 26 24 22 23 23 24 24 33 35 36 40 38 53 62 84 95 151 210 276 308 315 318 328 339 364 374 393 404 419 447 480 508 526 534 575 592 658 680 715 748 756 772 774 766 763 751 728 714 716 757 779 853 880 957 963 970 965 926 909 958 976 1032 1034 1052 1039 967 837 797 726 719 694 677 614 590 586 629 713 780 861 888 946 963 1022 1042 1095 1129 1165 1207 1227 1283 1300 1336 1361 1420 1471 1406 1381 1302 1268 1172 1139 1077 1046 1024 1015 1033 1043 1091 1119 1236 1230 1317 1346 1403 1538 1599 1561 1535 1473 1452 1388 1343 1284 1221 1142 1118 1054 1036 1012 1010 1010 1007
137 156 163 154 91 79 72 65 43 44 40 41 42 42 42 44 45 55 70 77 88 53 41 22 21 21 23 27 27 23 21 24 24 24 25 29 28 30 36 41 61 69 97 111 170 222 281 313 326 332 338 348 388 399 420 427 435 458 492 519 547 558 589 605 670 692 723 750 757 764 766 757 748 717 689 682 695 743 766 832 856 906 911 915 872 845 874 922 954 1002 1005 987 982 945 814 772 693 690 657 635 566 550 577 633 720 788 872 898 947 963 1022 1042 1095 1129 1165 1207 1227 1283 1300 1336 1361 1420 1471 1406 1381 1302 1268 1172 1139 1077 1046 1024 1015 1033 1043 1091 1119 1236 1230 1317 1346 1403 1538 1599 1561 1535 1473 1452 1388 1343 1284 1221 1142 1118 1054 1036 1012 1010 1010 1007
120 142 148 136 79 70 66 61 44 51 44 43 49 49 49 53 54 69 79 91 105 77 58 27 24 24 23 26 29 25 22 29 28 25 26 29 29 33 35 48 67 75 122 137 199 247 302 330 346 348 361 376 437 452 480 483 492 493 518 551 582 592 631 643 687 703 729 745 746 729 716 690 683 651 641 658 688 686 683 728 757 779 782 747 727 793 844 866 870 884 886 879 851 804 735 716 644 630 600 572 508 506 542 596 690 783 867 885 922 939 1019 1048 1120 1168 1214 1252 1264 1307 1322 1367 1418 1465 1442 1359 1336 1261 1232 1123 1083 1026 1002 982 976 964 965 978 999 1161 1194 1302 1335 1393 1472 1541 1573 1549 1491 1468 1402 1364 1310 1243 1125 1094 1037 1024 1006 1003 1000 996
92 118 119 107 66 64 67 62 50 56 52 51 55 57 60 64 65 90 97 110 125 102 83 39 33 28 24 27 29 27 22 29 26 24 27 35 34 39 43 55 72 79 122 137 199 247 302 330 346 348 361 376 437 452 480 483 492 493 518 551 582 592 631 643 687 703 729 745 746 729 716 690 683 651 641 658 688 686 683 728 757 779 782 747 727 793 844 866 870 884 886 879 851 804 735 716 644 630 600 572 508 506 542 596 690 783 867 885 922 939 1019 1048 1120 1168 1214 1252 1264 1307 1322 1367 1418 1465 1442 1359 1336 1261 1232 1123 1083 1026 1002 967 953 961 961 971 991 1159 1194 1304 1336 1395 1473 1527 1567 1549 1503 1481 1413 1376 1330 1265 1148 1101 1032 1020 1002 999 994 990
46 52 53 50 45 51 64 60 48 56 62 74 81 79 80 97 104 145 149 154 165 158 145 86 69 39 33 29 28 30 30 26 25 21 22 32 36 44 49 59 76 84 122 140 197 248 300 340 365 372 398 415 480 502 550 556 547 547 571 601 620 630 666 684 723 728 728 717 706 654 629 580 571 537 583 613 626 574 558 608 617 628 627 637 659 675 681 683 691 709 706 689 665 644 625 608 552 537 525 510 491 496 547 615 724 796 859 879 926 941 1024 1068 1173 1225 1261 1284 1299 1349 1362 1397 1459 1481 1398 1288 1263 1208 1191 1123 1082 995 967 956 953 953 958 1007 1056 1160 1199 1306 1338 1397 1474 1521 1571 1554 1509 1487 1423 1384 1340 1276 1161 1119 1026 1012 997 995 989 985
46 52 53 50 45 51 64 60 48 56 62 74 84 79 80 97 104 145 149 154 165 158 145 86 69 39 33 29 28 30 30 26 25 21 22 32 36 44 49 59 76 84 122 140 197 248 300 340 365 372 398 415 480 502 550 556 547 547 571 601 620 630 666 684 723 728 728 717 706 654 629 580 571 537 583 613 626 574 558 608 542 548 546 553 567 577 582 587 594 609 607 599 588 580 550 525 489 478 486 483 491 496 611 690 755 808 866 884 930 948 1013 1052 1212 1272 1298 1323 1333 1378 1394 1420 1454 1449 1364 1258 1225 1172 1159 1095 1064 982 952 942 943 949 956 995 1033 1170 1206 1312 1340 1355 1490 1523 1559 1547 1506 1485 1428 1391 1347 1282 1171 1134 1025 1009 995 992 986 981
13 14 14 13 28 37 57 52 46 54 70 89 102 110 113 121 124 159 181 182 198 198 188 140 116 65 54 29 27 28 28 30 31 24 24 28 29 36 42 58 79 90 123 134 190 239 285 341 388 399 442 455 517 544 609 615 596 597 619 654 672 676 716 723 724 720 703 655 635 561 528 457 445 434 472 475 479 461 440 463 467 470 467 465 475 484 490 499 503 518 522 525 476 427 453 465 448 447 466 471 496 519 655 728 781 825 880 899 941 959 1025 1055 1185 1291 1342 1355 1375 1452 1439 1503 1469 1410 1321 1221 1190 1115 1094 1035 1018 960 945 930 933 942 956 1019 1067 1139 1173 1286 1317 1366 1500 1540 1530 1522 1491 1474 1425 1390 1348 1287 1183 1145 1030 1010 992 989 985 979
4 5 4 1 23 32 51 49 45 53 67 85 108 124 125 121 122 160 193 192 209 222 220 175 149 90 75 35 27 29 29 28 29 29 29 31 27 33 43 61 79 89 116 126 179 226 277 334 393 416 473 484 538 564 630 637 623 622 640 673 691 701 728 729 719 709 679 616 592 523 497 408 390 395 414 414 411 392 380 398 395 359 389 382 390 399 410 424 426 444 396 348 371 385 401 419 442 446 469 478 542 575 681 750 801 844 897 917 977 1000 1052 1075 1167 1262 1367 1435 1462 1555 1562 1487 1433 1353 1277 1188 1160 1065 1038 979 968 930 924 922 926 937 967 1044 1073 1140 1181 1305 1316 1368 1493 1505 1493 1487 1463 1453 1414 1381 1339 1285 1187 1148 1036 1012 990 987 982 976
0 0 0 3 26 34 42 40 39 46 58 75 97 119 119 116 121 160 195 199 209 235 237 210 188 113 96 47 29 28 30 28 29 29 30 33 30 32 43 57 77 87 112 122 170 214 272 325 395 429 501 519 552 572 639 649 646 648 665 685 706 715 725 723 701 691 661 588 561 495 473 384 350 360 359 352 341 335 330 286 283 251 242 225 229 241 250 260 256 276 298 319 346 357 373 397 450 462 493 507 577 607 700 761 812 864 924 945 1012 1035 1113 1141 1193 1261 1366 1453 1498 1566 1546 1454 1396 1330 1264 1168 1136 1032 997 936 931 926 922 915 922 935 971 1041 1068 1192 1228 1321 1347 1392 1450 1464 1457 1451 1430 1423 1395 1369 1331 1280 1183 1144 1039 1014 986 983 979 974
0 0 0 4 33 37 34 31 31 38 52 67 81 97 100 111 121 165 199 210 210 243 246 234 220 141 118 62 33 27 29 29 31 31 29 32 31 29 40 53 72 83 113 125 168 214 271 311 390 424 508 531 567 575 637 653 664 672 688 694 713 719 715 709 674 662 632 564 539 469 450 365 330 288 296 279 262 244 238 229 227 207 198 187 188 198 208 217 223 261 287 311 330 335 348 381 461 478 540 562 627 643 716 772 829 883 950 972 1042 1064 1142 1170 1252 1303 1384 1486 1528 1546 1524 1431 1378 1320 1257 1158 1124 1004 971 925 918 908 905 908 918 933 975 1059 1093 1205 1241 1332 1355 1390 1429 1426 1415 1410 1392 1387 1367 1348 1319 1273 1181 1147 1042 1013 981 979 975 971
2 0 0 4 32 36 30 27 26 35 47 64 74 80 86 108 123 176 208 217 214 246 254 254 242 167 138 75 39 27 30 29 30 31 29 30 29 27 36 48 63 73 109 123 170 215 266 299 353 412 503 530 576 582 626 647 673 682 695 697 705 711 685 671 626 610 579 537 516 443 422 337 306 242 238 224 207 187 181 183 186 173 170 166 162 161 170 190 213 262 282 299 303 309 340 391 467 494 574 600 672 692 750 802 847 900 969 992 1059 1082 1160 1185 1272 1337 1417 1501 1530 1519 1495 1424 1376 1315 1252 1195 1127 1000 964 917 911 892 890 891 898 920 983 1081 1118 1230 1270 1368 1373 1369 1361 1357 1336 1327 1305 1300 1297 1291 1277 1254 1187 1150 1043 1013 973 969 966 964
15 5 0 2 20 26 22 22 23 32 42 55 66 76 79 111 131 196 223 219 222 248 262 273 263 188 158 83 47 30 31 30 31 32 29 28 27 27 33 41 57 63 100 114 169 215 263 296 353 406 493 523 577 583 609 628 672 683 686 682 669 663 624 605 548 534 509 477 470 412 387 299 268 202 191 179 167 150 146 150 153 147 147 148 147 137 138 167 206 261 271 278 293 327 377 415 490 522 607 632 702 725 789 833 878 924 987 1008 1075 1099 1174 1198 1277 1347 1418 1486 1510 1492 1472 1412 1373 1322 1263 1203 1133 1013 970 909 901 892 890 891 898 920 983 1081 1118 1230 1270 1368 1373 1369 1361 1357 1336 1327 1305 1300 1297 1291 1277 1254 1187 1150 1043 1013 973 969 966 964
19 10 3 3 10 14 8 10 22 27 37 48 60 72 77 111 136 209 229 229 233 254 262 273 265 199 172 94 54 33 32 32 31 31 29 31 29 26 28 39 52 59 87 101 162 208 251 292 352 400 481 512 575 585 595 604 655 672 671 658 625 612 564 540 489 471 447 416 405 355 333 245 213 169 155 146 134 121 120 120 121 132 139 140 133 121 121 146 187 242 257 274 329 375 419 462 532 557 639 662 725 747 814 863 908 951 1008 1026 1090 1113 1186 1208 1283 1342 1403 1463 1483 1458 1440 1394 1362 1320 1269 1218 1156 1048 992 903 894 884 881 883 892 919 1007 1120 1154 1241 1273 1350 1346 1333 1323 1318 1293 1284 1258 1257 1258 1256 1247 1233 1178 1152 1055 1021 970 966 962 961
15 20 4 3 4 4 4 1 20 26 35 47 59 70 78 110 134 214 239 243 245 262 265 257 248 199 176 101 62 37 31 29 30 28 26 31 31 28 26 36 45 51 73 86 145 191 234 281 337 391 471 503 569 580 592 590 617 631 636 629 589 571 512 493 443 427 403 364 344 284 266 191 164 136 134 124 112 103 103 97 99 117 124 127 121 108 114 135 169 229 252 278 367 422 469 513 582 603 665 686 744 765 836 886 931 975 1025 1036 1090 1117 1194 1217 1287 1336 1390 1441 1454 1420 1403 1358 1347 1316 1278 1226 1179 1086 1037 904 888 879 876 878 885 922 998 1126 1156 1237 1267 1332 1317 1297 1274 1269 1246 1238 1212 1211 1215 1182 1180 1169 1136 1119 1050 1022 960 956 955 953
11 20 11 4 0 0 0 4 15 25 33 45 62 76 84 108 128 206 239 244 247 253 256 249 238 192 175 106 66 38 30 29 30 27 25 29 30 29 27 31 40 46 70 80 129 171 217 266 319 375 460 487 556 571 589 582 559 562 565 568 547 533 484 467 413 397 367 324 301 234 209 145 129 111 113 109 98 89 84 81 86 102 110 112 108 108 120 136 168 227 252 283 389 446 495 544 614 635 692 710 768 788 856 903 945 985 1040 1051 1089 1112 1186 1215 1278 1322 1369 1412 1420 1376 1362 1317 1306 1293 1280 1246 1195 1116 1082 908 883 872 870 866 874 915 982 1113 1144 1247 1286 1311 1289 1265 1236 1228 1199 1193 1180 1177 1182 1182 1180 1169 1136 1119 1050 1022 960 956 955 953
5 17 13 5 0 0 0 0 12 18 33 45 67 89 94 108 119 180 218 219 218 229 235 242 233 178 164 110 72 44 33 31 31 27 25 27 27 27 25 27 38 44 65 74 119 137 200 245 297 352 431 456 525 541 569 564 521 500 504 505 492 483 456 442 385 370 337 290 269 193 168 122 109 98 96 96 89 80 76 71 75 89 98 107 110 114 122 141 175 239 265 294 398 451 491 539 623 647 713 731 787 807 875 918 974 1009 1064 1082 1146 1168 1225 1243 1281 1302 1332 1346 1341 1292 1277 1237 1222 1204 1220 1218 1186 1104 1073 954 899 848 847 847 849 884 928 1063 1110 1181 1164 1219 1241 1208 1160 1147 1094 1090 1102 1100 1094 1088 1079 1064 1068 1055 999 980 942 942 946 944
2 14 15 7 0 0 0 0 13 18 33 46 67 96 100 108 118 156 180 182 181 200 210 232 228 173 155 114 81 53 36 32 32 27 27 28 26 25 24 25 34 39 62 71 109 127 185 224 275 328 396 418 477 499 537 536 490 445 431 436 423 417 400 394 353 334 300 252 234 163 141 102 94 86 85 87 80 70 70 71 74 92 101 125 126 128 130 147 177 249 277 307 404 447 476 525 624 650 718 739 801 822 889 933 974 1009 1064 1082 1146 1168 1225 1243 1281 1302 1332 1346 1341 1292 1277 1237 1222 1204 1220 1218 1186 1104 1073 954 899 848 847 847 849 884 928 1063 1110 1181 1164 1219 1241 1208 1160 1147 1094 1090 1102 1100 1094 1088 1079 1064 1064 1055 999 980 942 942 946 944
1 13 20 16 0 0 0 0 14 22 35 46 61 84 88 104 117 147 155 157 163 186 194 218 219 170 149 112 86 60 42 34 36 32 30 28 29 26 26 24 30 35 54 61 95 112 159 183 218 251 304 322 379 392 372 375 363 343 316 284 247 241 237 236 244 235 202 162 148 96 85 74 75 76 78 76 81 75 76 86 92 110 121 166 181 187 177 182 211 283 310 339 428 463 501 558 647 672 736 758 822 843 917 962 1003 1046 1097 1117 1193 1225 1299 1317 1359 1351 1307 1273 1268 1222 1202 1134 1113 1091 1119 1137 1123 1058 1027 913 866 826 825 825 822 839 879 963 958 1046 1072 1093 1093 1151 1093 1078 1001 972 981 975 972 971 970 966 961 952 929 918 923 927 930 930
1 11 20 15 0 0 0 0 17 27 37 45 57 71 75 97 111 147 144 146 156 181 185 205 210 170 147 107 87 66 49 39 36 32 30 28 29 26 26 24 30 35 54 61 95 112 159 183 218 251 304 322 379 392 372 375 363 343 316 284 247 241 237 236 244 235 202 162 148 96 85 74 75 76 78 76 81 75 76 86 92 110 121 166 181 187 177 182 211 283 310 339 428 463 501 558 647 672 736 758 822 843 917 962 1003 1046 1097 1117 1193 1225 1299 1317 1359 1361 1307 1273 1268 1222 1202 1134 1113 1091 1119 1137 1123 1058 1027 899 858 817 816 815 811 812 839 890 912 985 1009 1040 1040 1031 1010 1002 959 939 922 914 910 911 913 913 914 915 895 897 914 918 924 924
0 3 19 17 0 0 0 0 5 8 30 43 54 61 64 92 111 141 138 141 158 180 185 199 200 178 158 107 89 72 60 48 45 34 32 32 33 33 29 31 32 32 46 52 80 91 129 149 154 157 182 198 254 264 269 261 234 220 204 187 159 150 136 133 126 121 107 89 79 67 66 78 80 97 111 125 118 113 106 102 104 118 126 156 169 200 210 224 244 297 324 356 448 508 570 626 712 736 784 797 856 876 944 989 1032 1072 1128 1146 1214 1243 1311 1334 1360 1337 1215 1192 1189 1140 1108 1030 1018 1006 1016 1032 1036 995 969 888 850 808 806 805 801 793 801 852 865 922 942 983 986 984 968 960 928 910 826 827 868 866 869 872 879 871 882 890 907 909 916 917
0 3 19 17 0 0 0 0 5 8 30 43 54 61 64 92 111 141 138 141 158 180 185 199 200 178 158 107 89 72 60 48 45 34 32 32 33 33 29 31 32 32 46 52 80 91 129 149 154 157 182 198 254 264 269 261 234 220 204 187 159 150 136 133 126 121 107 89 79 67 66 78 80 100 127 153 154 142 134 124 123 126 131 151 161 192 209 229 251 310 336 366 464 529 590 644 720 743 807 829 892 910 974 1038 1070 1099 1144 1162 1221 1243 1308 1328 1314 1282 1171 1158 1154 1101 1070 1013 1001 984 983 981 986 961 941 877 851 798 796 797 794 790 784 810 823 863 880 921 927 929 917 910 881 866 808 805 809 811 815 811 815 836 877 886 901 904 912 912
0 0 5 3 0 0 0 0 0 0 17 34 37 48 54 100 122 142 141 140 156 186 196 211 209 185 172 125 105 92 75 55 53 50 47 35 32 33 35 35 34 35 44 48 66 73 99 101 91 85 87 97 134 146 167 166 151 135 120 108 94 90 85 81 75 72 71 69 68 72 75 75 76 97 140 182 193 177 167 150 145 150 154 167 170 188 211 233 264 332 357 383 475 531 584 635 706 725 793 819 910 936 1004 1047 1076 1108 1156 1167 1203 1221 1281 1294 1255 1224 1146 1135 1129 1069 1050 1053 1042 1020 990 960 952 936 921 857 837 793 791 792 787 783 781 779 783 816 825 853 858 862 858 855 838 828 793 797 805 807 811 813 819 837 871 880 895 898 904 905
0 0 0 0 0 0 0 0 0 0 9 18 28 37 46 92 115 148 153 146 162 193 200 208 207 193 181 136 114 96 77 59 57 53 50 39 38 35 30 36 36 37 47 48 59 65 86 85 74 65 63 67 95 108 132 134 122 106 89 79 71 72 71 70 66 62 63 68 69 72 73 78 81 97 139 198 222 211 199 184 179 180 184 189 191 196 225 252 283 347 368 389 467 519 565 612 680 700 763 790 883 913 987 1028 1058 1087 1124 1138 1182 1200 1245 1253 1205 1180 1136 1119 1106 1078 1081 1051 1044 1022 983 945 932 914 901 847 827 790 787 785 780 775 774 772 773 785 788 801 805 811 814 817 799 785 791 794 803 805 810 812 820 835 866 875 889 892 898 900
0 0 0 0 0 0 0 0 0 0 3 5 12 29 38 77 95 145 156 150 167 211 220 214 209 199 190 146 123 98 81 65 62 56 53 45 44 37 34 35 36 35 43 43 50 55 71 70 57 48 45 46 68 78 102 104 92 77 62 56 55 59 63 61 57 58 64 69 70 71 72 80 83 97 110 192 238 243 230 222 221 214 214 213 211 206 233 270 295 345 362 380 446 491 532 577 655 681 749 772 856 882 950 991 1023 1042 1074 1091 1147 1165 1221 1229 1182 1160 1135 1120 1109 1075 1083 1057 1049 1014 971 940 921 899 892 843 819 785 783 779 774 769 769 766 765 770 782 772 777 782 788 771 775 779 790 793 802 805 811 815 822 836 861 868 882 885 892 895
0 0 0 0 0 0 0 0 0 0 0 3 4 21 30 63 77 126 149 147 158 212 230 241 233 205 194 154 129 106 88 75 69 58 56 50 48 44 41 36 36 36 36 39 45 47 55 50 42 38 36 37 46 51 68 71 62 53 47 48 52 54 57 56 59 61 65 69 69 72 75 83 86 99 108 177 229 252 254 248 248 248 247 244 240 220 230 262 296 335 351 368 420 461 501 547 636 669 756 775 833 851 910 946 968 990 1023 1064 1122 1142 1200 1210 1177 1158 1137 1129 1127 1100 1091 1066 1059 1023 985 953 924 895 887 854 828 790 784 776 772 768 767 763 762 753 753 762 761 759 762 763 773 777 789 793 803 807 813 818 826 837 858 863 876 878 888 890
0 0 0 0 0 0 0 0 0 0 0 0 3 18 26 53 64 108 136 140 142 181 203 242 244 225 209 165 140 116 97 82 78 68 63 56 54 48 47 42 39 37 37 38 38 38 43 41 36 35 34 34 36 38 45 47 44 43 44 48 52 52 52 52 55 56 60 68 69 75 78 87 91 99 108 163 207 243 264 265 265 272 274 273 269 257 239 248 293 333 346 360 397 437 480 521 608 646 736 756 802 817 868 894 918 946 988 1028 1087 1110 1176 1188 1165 1149 1140 1133 1130 1098 1080 1061 1055 1030 1004 970 938 928 919 894 882 842 829 801 785 776 769 760 758 755 754 753 751 748 749 753 764 769 786 791 806 811 820 824 829 836 849 853 864 867 876 878
0 0 0 0 0 0 0 0 0 0 0 3 12 20 25 47 56 99 120 126 129 147 163 222 236 246 233 181 148 125 111 94 91 84 81 73 66 55 51 44 42 40 40 39 36 36 40 39 36 38 36 36 37 38 40 41 44 43 48 50 50 48 48 48 51 52 58 68 70 79 82 93 97 109 117 163 205 246 278 297 297 293 295 293 288 281 262 251 284 331 341 352 384 417 456 498 579 613 702 720 765 781 822 845 875 911 951 988 1049 1075 1151 1166 1156 1141 1142 1145 1142 1115 1101 1081 1072 1047 1030 1000 970 928 919 894 882 842 829 801 785 776 769 760 758 755 754 753 751 748 749 753 764 769 786 791 806 811 820 824 829 836 849 853 864 867 876 878
0 0 0 0 0 0 0 0 0 0 0 4 22 29 29 46 58 98 112 114 116 124 135 196 223 261 257 206 164 135 125 116 116 100 92 81 77 64 61 50 43 43 41 40 41 41 45 45 42 43 38 40 40 40 42 42 45 48 50 46 45 44 47 48 50 51 58 71 76 88 120 143 148 170 172 212 251 296 343 374 373 368 367 356 349 320 307 294 281 310 322 331 358 378 402 436 501 530 614 631 670 681 724 738 787 830 872 916 987 1020 1082 1093 1119 1120 1129 1147 1154 1166 1164 1159 1152 1124 1102 1085 1055 1037 1033 956 944 928 944 912 885 821 797 787 767 749 748 741 740 738 738 740 750 755 777 784 803 809 822 826 830 835 843 846 857 859 867 868
0 0 0 0 0 0 0 0 0 0 10 5 23 31 30 42 56 95 112 104 103 105 113 171 201 259 260 221 170 141 136 137 140 122 110 87 84 79 71 54 49 48 43 43 44 44 46 49 48 49 49 48 43 40 45 45 50 50 48 45 48 49 53 57 62 66 70 83 87 114 120 143 148 170 172 212 251 296 343 374 373 368 367 356 349 320 307 294 281 310 322 331 358 378 402 436 501 530 614 631 670 681 724 738 787 830 872 916 987 1020 1082 1093 1119 1120 1129 1147 1154 1166 1164 1159 1152 1124 1102 1085 1055 1037 1033 956 944 928 944 912 885 821 797 787 767 749 748 741 740 738 738 740 750 746 770 779 801 808 822 827 830 834 841 844 854 857 864 865
0 0 0 0 0 0 0 0 0 0 15 15 13 20 22 36 41 60 73 77 71 73 75 113 135 211 227 213 174 156 165 189 190 175 166 133 125 99 89 71 63 60 56 54 54 53 51 54 52 53 54 56 51 50 53 54 58 59 64 73 105 117 143 144 141 136 127 138 147 181 193 237 252 269 254 294 342 382 420 470 481 481 473 438 424 379 348 328 316 302 307 313 328 346 362 382 443 464 528 549 589 597 631 650 725 771 810 866 948 954 969 981 1036 1054 1098 1128 1147 1189 1194 1212 1198 1180 1176 1188 1189 1152 1122 1129 1107 1058 1043 1032 1013 938 927 889 850 785 764 721 722 723 723 725 731 737 765 776 800 807 821 826 830 834 840 842 852 854 861 860
0 0 0 0 0 0 0 0 0 0 15 15 13 20 22 36 41 60 73 77 71 73 75 113 135 211 227 213 174 156 165 189 190 175 166 133 125 99 89 71 63 60 56 54 54 53 51 54 52 53 54 56 51 50 53 54 58 59 64 73 105 117 143 144 141 136 127 138 147 181 193 237 252 269 254 294 342 382 420 470 481 481 473 438 424 379 348 328 316 302 307 313 328 346 362 382 443 464 528 549 563 571 607 622 699 745 789 856 892 894 927 946 1003 1021 1072 1110 1134 1204 1222 1228 1208 1166 1154 1159 1178 1187 1191 1167 1137 1088 1070 1061 1045 980 945 902 856 782 757 708 709 712 713 713 720 727 758 771 797 805 820 825 830 835 837 839 852 855 862 862
0 0 0 0 0 0 0 0 0 0 10 13 16 22 21 23 27 40 44 49 49 58 61 77 90 154 176 207 182 171 187 211 216 239 246 230 213 143 124 92 82 79 70 66 60 59 60 57 58 57 59 62 54 58 57 60 67 76 85 97 125 135 185 203 219 212 206 221 245 288 301 360 376 376 361 351 405 446 482 549 572 562 548 503 487 430 394 363 342 320 317 317 326 334 341 355 397 415 469 488 539 551 583 597 670 719 770 813 824 835 892 915 977 996 1052 1093 1117 1213 1246 1259 1225 1145 1120 1110 1128 1156 1165 1185 1190 1099 1077 1082 1065 991 949 906 855 777 750 693 697 701 703 705 711 718 750 762 788 796 817 825 831 839 848 847 855 860 870 871
0 0 0 0 0 0 0 0 0 0 10 13 16 22 21 23 27 40 44 41 44 55 59 73 81 135 159 200 180 171 184 208 216 260 278 266 242 164 146 110 98 92 80 76 67 67 67 61 59 58 59 61 56 60 61 62 80 84 93 107 133 144 190 206 224 225 230 251 281 329 344 410 427 422 410 377 422 468 508 575 596 586 571 527 510 455 421 389 360 328 323 322 330 336 340 347 384 399 445 460 511 524 563 575 641 694 745 760 772 785 865 892 960 979 1039 1082 1109 1220 1257 1271 1233 1127 1085 1058 1066 1105 1115 1156 1168 1181 1163 1089 1066 992 942 904 853 772 743 680 684 689 692 693 702 709 734 744 773 784 823 838 864 897 910 900 876 874 880 882
0 0 0 0 0 0 0 0 0 0 6 12 17 21 21 20 22 29 36 40 43 55 59 73 81 130 154 191 173 165 173 199 211 272 298 288 261 192 179 144 123 114 92 89 80 82 79 61 62 63 61 61 58 63 66 70 87 92 102 117 149 166 211 224 247 249 257 279 315 367 380 437 456 454 441 400 434 484 529 600 622 611 597 549 534 492 460 426 396 354 343 335 332 338 343 349 365 391 428 444 488 500 540 556 623 674 715 719 740 759 847 878 947 969 1031 1083 1117 1225 1251 1247 1223 1109 1057 1010 997 1042 1061 1116 1132 1166 1155 1094 1067 992 932 890 844 767 735 666 671 677 679 681 689 694 708 714 751 775 848 888 925 964 1001 999 929 914 897 899
0 0 0 0 0 0 0 0 0 0 1 13 12 20 21 20 21 32 34 39 43 53 58 73 80 130 152 184 166 155 165 201 215 280 309 299 274 223 219 187 159 143 113 109 103 100 89 76 66 68 66 64 58 62 73 80 96 104 115 132 174 194 247 260 287 289 296 315 348 409 420 457 474 484 469 424 442 488 539 612 636 636 622 573 562 527 500 464 429 384 369 356 338 341 345 354 366 383 412 426 470 484 528 547 614 652 680 694 734 754 840 872 949 971 1032 1082 1115 1209 1214 1193 1181 1088 1022 961 938 989 1013 1075 1091 1133 1139 1088 1064 987 926 875 834 746 714 652 658 664 667 667 670 672 673 677 741 772 866 921 968 1010 1056 1061 1012 987 935 931
0 0 0 0 0 0 0 0 0 0 16 15 14 22 22 22 24 38 35 40 44 54 58 75 84 130 148 175 157 151 167 211 232 301 328 312 293 259 257 227 196 172 132 126 122 120 102 97 82 76 72 68 58 62 82 90 103 110 126 151 207 225 276 288 318 321 333 357 383 444 457 489 505 512 496 443 450 485 534 611 636 660 648 607 595 563 537 500 464 416 398 382 346 345 348 356 367 381 406 416 465 484 548 566 597 614 641 669 736 765 850 876 954 976 1033 1083 1117 1198 1183 1133 1124 1055 984 918 898 913 952 1021 1043 1085 1098 1083 1060 985 925 868 813 721 686 638 645 650 652 652 633 631 626 636 739 783 894 954 1008 1057 1102 1134 1133 1119 1076 1066
0 0 0 0 0 0 0 0 0 2 27 31 24 23 22 23 28 39 39 43 49 59 62 77 89 131 145 171 154 153 178 240 269 352 369 339 325 297 291 260 220 194 148 140 136 135 121 116 104 98 89 81 61 63 88 97 119 128 142 163 229 248 303 313 334 338 356 391 426 476 488 525 537 540 523 465 462 485 527 601 626 688 684 642 630 598 569 531 492 444 426 408 359 350 352 357 368 384 407 416 474 502 566 571 577 590 618 655 737 771 861 885 955 975 1033 1107 1151 1160 1133 1081 1072 1015 946 885 860 873 907 964 986 1025 1040 1066 1052 979 922 866 795 686 655 628 633 637 639 638 633 631 626 636 739 783 894 954 1008 1057 1102 1134 1133 1119 1076 1066
0 0 0 0 0 0 0 0 0 3 34 52 41 32 28 25 27 35 39 42 49 59 64 83 95 132 145 167 159 165 206 316 340 400 409 378 368 344 328 280 236 212 169 158 147 144 135 129 126 121 112 106 78 67 85 96 130 137 151 170 224 244 306 316 329 334 360 409 457 508 519 556 564 559 542 492 485 500 529 594 621 702 707 672 660 624 593 558 520 471 452 432 378 363 356 360 371 388 420 433 502 526 565 566 572 588 615 654 740 780 873 897 964 984 1051 1133 1165 1120 1087 1029 1022 960 910 864 842 844 863 911 925 964 981 1028 1029 973 919 864 790 663 637 620 623 626 628 627 622 620 621 635 751 793 902 964 1017 1064 1109 1146 1176 1166 1128 1122
0 0 0 0 0 0 0 0 0 1 28 58 62 53 42 27 27 34 38 45 54 75 78 99 109 136 145 173 180 200 275 378 387 415 428 419 414 382 360 293 246 229 188 177 160 155 144 141 140 136 132 129 106 96 76 87 118 136 160 176 210 230 295 312 328 331 356 409 468 532 543 580 586 568 558 522 515 522 543 594 618 700 715 697 690 649 618 585 548 492 473 456 403 386 361 366 374 392 432 450 509 530 562 565 578 597 631 675 764 797 886 913 975 997 1078 1141 1150 1079 1055 987 980 927 907 856 835 826 828 858 869 894 918 977 986 962 912 861 788 657 628 612 615 618 619 619 616 615 618 634 761 805 911 943 1019 1066 1105 1139 1181 1185 1172 1170
0 0 0 0 0 0 0 0 0 3 22 56 67 60 51 29 27 36 41 49 66 102 104 117 125 148 159 203 227 274 356 405 399 408 423 459 458 413 389 312 268 252 209 196 174 167 158 153 149 148 145 140 127 123 88 79 96 118 153 183 213 223 279 298 320 322 347 401 463 539 554 599 605 590 579 550 543 548 564 600 622 699 719 726 723 678 637 604 572 515 497 480 427 410 368 370 378 396 438 457 518 535 570 576 603 636 675 727 807 830 896 924 1017 1037 1096 1126 1119 1043 1019 970 953 921 913 870 844 828 816 821 825 850 865 918 933 937 901 851 772 658 626 603 607 609 611 611 609 608 610 628 755 796 906 938 1010 1050 1083 1117 1166 1180 1208 1210
0 0 0 0 0 0 0 0 0 0 13 46 62 60 54 32 28 33 43 54 78 126 129 130 137 156 168 233 279 341 409 416 398 401 420 472 478 445 422 346 299 281 232 216 190 190 186 176 166 159 158 155 144 141 113 95 90 97 139 185 227 234 268 285 306 312 340 390 450 536 555 611 623 616 606 572 564 575 586 612 630 704 727 757 757 701 658 625 595 538 519 501 445 428 380 375 382 394 432 453 521 542 591 604 661 703 747 796 848 866 937 962 1032 1053 1101 1106 1095 1024 1009 978 966 980 980 971 951 950 937 808 781 751 742 775 790 840 846 812 745 633 602 581 588 593 594 594 593 592 585 593 677 704 821 857 953 1003 1040 1074 1130 1151 1209 1228
0 0 0 0 0 0 0 0 0 0 6 29 51 60 56 37 31 31 39 56 87 136 138 137 142 157 170 246 307 374 428 425 389 405 422 466 480 475 459 380 332 312 254 238 215 217 218 204 192 177 167 163 157 155 139 123 110 99 111 164 212 241 267 278 295 305 336 378 432 528 553 612 628 640 630 594 586 595 606 626 638 709 736 784 784 727 682 645 613 579 540 521 464 445 391 380 383 393 434 454 523 547 614 638 714 764 802 844 913 937 956 986 1054 1073 1104 1100 1093 1063 1051 1003 995 980 980 971 951 950 937 808 781 751 742 775 790 840 846 812 745 633 602 581 588 593 594 594 593 592 585 593 677 704 821 857 953 1003 1040 1074 1130 1151 1209 1228
0 0 0 0 0 0 0 0 0 0 4 12 31 54 54 39 34 28 39 55 85 134 137 141 147 154 163 238 302 370 415 402 369 394 413 460 477 494 481 408 359 335 276 264 248 250 250 235 218 201 185 181 168 167 159 149 128 116 98 139 202 239 268 275 299 313 342 371 407 498 531 605 625 677 679 658 647 657 669 663 668 727 757 806 807 756 713 673 636 599 562 543 489 470 415 393 393 402 432 446 502 525 597 619 662 691 731 785 881 914 1013 1049 1146 1159 1154 1155 1150 1092 1085 1061 1057 1048 1044 1055 1060 1009 962 885 852 733 706 660 651 726 719 728 684 579 558 562 568 575 576 575 573 572 563 562 600 633 779 836 941 984 1019 1055 1116 1140 1208 1228
0 0 0 0 0 0 0 0 0 0 0 4 13 37 41 35 30 28 31 47 81 120 123 136 145 158 161 215 268 333 370 351 330 376 398 448 465 493 481 428 380 355 309 298 280 281 277 264 244 218 198 195 174 173 173 167 143 144 108 131 200 242 272 275 299 313 342 371 407 498 531 605 625 677 679 658 647 657 669 663 668 727 757 806 807 756 713 673 636 599 562 543 489 470 415 393 393 402 432 446 502 525 597 619 662 691 731 785 881 914 1013 1049 1146 1159 1154 1155 1150 1092 1085 1061 1057 1048 1044 1055 1060 1009 962 885 852 733 706 660 651 726 719 728 684 579 558 562 568 575 565 566 566 565 558 557 596 640 795 854 942 982 1015 1051 1114 1136 1208 1230
0 0 0 0 0 0 0 0 0 0 0 0 3 10 12 5 4 4 3 18 57 85 91 112 124 163 173 195 215 245 257 246 266 342 362 391 406 444 447 436 411 405 394 385 359 354 311 266 235 214 200 198 190 189 180 177 176 161 118 142 196 228 271 277 301 312 337 366 400 464 491 576 607 685 700 713 706 722 742 716 709 742 762 797 797 757 711 666 629 591 556 543 495 479 428 407 414 429 450 457 488 499 528 537 567 603 655 731 871 910 1033 1082 1166 1122 1133 1136 1139 1211 1201 1121 1123 1115 1109 1102 1092 1029 981 916 890 797 756 650 614 579 617 599 577 531 531 545 549 555 556 558 558 557 552 553 604 653 815 864 942 981 1016 1052 1115 1136 1208 1231
